-188.0164652680 -199.5911360692 1630.3616686545
-186.6213502857 -200.1549023665 1630.1316349636
-189.7625867479 -196.3991942926 1630.9194585258
-190.8458947224 -194.6226342285 1631.2434001171
-181.5234919469 -201.1493765650 1629.4067370609
-180.5411080438 -201.4643910906 1629.2536537377
-179.8901308933 -201.0717147600 1629.2174945544
-192.0325457902 -187.2578765476 1632.1864224153
-192.6238348417 -184.4233134388 1632.5656604878
-189.1233221673 -178.6520939164 1632.7684621744
-189.4935458706 -177.3822701607 1632.9511010328
-189.3231338277 -176.5768185712 1633.0179056339
-188.2769888608 -175.3602251208 1633.0233550469
-187.4986501513 -201.4220019245 1630.4921259368
-183.9228187442 -203.4578779655 1629.8188667052
-186.8154058041 -200.6340214698 1630.4954051619
-185.9762847672 -200.5117399103 1630.4046687938
-182.3261408849 -202.8242563519 1629.6911532005
-190.4148589195 -195.6058514374 1631.5069928851
-182.3841547987 -201.9249116005 1629.7991761597
-180.0425571048 -203.2101534547 1629.3636713764
-193.3419095927 -191.3723639335 1632.3458180285
-192.7329777205 -190.3077430782 1632.3893536151
-178.7213739285 -201.8072245204 1629.3564747085
-191.4896971852 -190.3232548203 1632.2328686342
-192.7167505669 -186.1824584792 1632.8497124318
-192.3072058197 -183.7776301651 1633.0682808309
-190.0762507049 -180.7215609008 1633.1331389778
-190.3136916088 -179.6668035111 1633.2809138024
-190.1252177966 -179.0870937048 1633.3224314044
-188.6046474953 -179.0243722292 1633.1402019240
-188.7116285009 -176.4905602818 1633.4375173097
-186.9137684338 -176.3496055883 1633.2295433299
-186.6346835850 -175.4238318319 1633.2985711679
-190.6827428955 -196.9642933751 1631.2814964805
-188.6576652880 -198.6141733434 1630.8426323321
-184.4353625611 -201.9570239294 1629.9386307085
-183.1490531279 -202.6477056630 1629.7004435873
-184.6122528688 -200.9541193756 1630.0744880074
-180.3660197225 -203.7867764209 1629.2254510875
-191.3472943035 -193.6271057049 1631.7429967737
-191.5552833345 -193.0219896009 1631.8375441858
-192.0693003621 -192.0453088386 1632.0122933216
-192.2916260008 -191.2153825530 1632.1341503677
-191.5287109668 -186.3551241850 1632.5913226075
-191.5069896151 -181.3830763958 1633.1532427195
-190.3376903309 -178.4680539581 1633.3390457973
-188.7237397695 -177.2128840918 1633.2811347828
-188.9489884810 -199.7677708169 1630.9768402329
-187.3535512652 -199.9815314368 1630.7582108324
-189.7307724191 -197.2874005183 1631.3547340097
-191.8088138745 -194.8522143554 1631.8853147133
-181.1652865298 -203.9582540185 1629.5514579654
-181.7110799046 -203.3797598209 1629.6838497317
-191.0292700610 -194.6781105718 1631.8102382976
-192.8606978400 -192.5624738509 1632.2743697085
-192.6196774836 -191.9222695071 1632.3179897453
-181.0858809614 -201.6927497997 1629.8000008902
-179.6554117292 -201.9759308410 1629.5935463463
-192.9647168129 -188.3344888447 1632.7689214629
-192.7930424384 -184.8756278301 1633.1422426692
-191.1433626030 -184.1814236154 1633.0204941035
-191.1344160875 -183.4464571045 1633.1031728055
-190.7575074185 -182.2872577896 1633.1893992409
-190.6288890236 -181.6558691810 1633.2457009534
-191.0371174882 -179.7110198640 1633.5170731342
-189.3947075704 -178.9044220118 1633.4090198823
-189.9315544298 -177.5909613034 1633.6240903506
-189.2644125779 -177.4256732550 1633.5616956105
-187.6510823311 -176.1695008531 1633.5084236138
-187.6639455689 -175.0973534300 1633.6321882572
-187.2160508497 -201.0130978528 1633.3457167655
-188.0316183539 -200.0151146744 1633.5567088907
-189.4021516247 -198.4470611869 1633.8984923196
-184.0387129478 -202.5259562813 1632.8021773055
-187.0382713539 -199.6965303196 1633.4795797366
-184.9845813209 -201.3140166683 1633.0532698416
-189.2760705019 -197.1918298564 1634.0311224054
-187.5346805795 -198.4427395386 1633.6837804467
-186.9976508950 -198.7883906211 1633.5813665974
-180.6746275091 -202.8344567899 1632.3783120896
-190.4282038179 -193.3990691372 1634.6085556661
-180.8608464970 -201.2126487929 1632.5899101116
-192.1110371994 -191.4644389832 1635.0293070313
-179.7192625462 -201.3324400993 1632.4443030924
-192.2276217323 -190.0057140101 1635.2137604844
-191.5666207981 -188.3615398795 1635.3303419692
-192.2292030565 -186.4449542106 1635.6313979987
-190.8270173679 -186.9926583863 1635.4055901578
-190.9504600688 -186.1563176824 1635.5178670898
-191.9928670199 -184.4446662055 1635.8386703763
-190.7726805731 -184.8397501493 1635.6517300609
-190.9567896879 -183.9525360348 1635.7769628347
-190.4129018355 -183.6758028480 1635.7467255065
-190.4150117085 -182.9412089655 1635.8330907548
-190.9135308072 -180.9528243019 1636.1236567132
-190.7336414384 -180.3708506513 1636.1711544360
-189.5762312786 -179.9804673018 1636.0835352107
-189.0323434261 -179.7037341150 1636.0532978826
-189.4701961108 -177.7662228621 1636.3309079991
-188.8049754305 -177.5912364967 1636.2747589873
-188.6340541027 -176.8970532327 1636.3364454373
-187.1416594552 -175.7406876246 1636.3000225908
-186.6763740987 -175.1886618006 1636.3111185588
-186.1593903693 -174.5752997739 1636.3234474122
-185.8423419637 -173.5848982887 1636.4030212453
-186.3971889942 -200.7975289194 1633.3261006083
-190.8520137726 -196.6255900826 1634.3329229740
-187.5912214050 -199.2673426616 1633.6440249824
-188.2316045305 -198.3083927406 1633.8306670613
-182.0302113579 -203.1124229381 1632.5461921176
-190.9480333129 -195.3909729613 1634.4881734862
-190.1091086614 -195.9927325779 1634.3200248832
-189.4692821868 -196.2170168822 1634.2191598501
-183.1293375302 -201.3475225681 1632.8804200711
-191.1045995461 -194.1053560158 1634.6564427331
-182.8358897657 -200.7556181514 1632.9152171263
-189.9896852283 -193.8907353756 1634.5513185511
-180.1985790762 -201.9282310328 1632.4705108934
-190.8809841745 -192.6155482382 1634.8041492517
-192.5681191776 -190.5651254679 1635.2403371865
-192.6728677670 -189.2182704264 1635.4097013816
-191.4734462126 -186.4527009034 1635.5923255992
-191.3621951777 -184.9731313978 1635.7519559042
-191.5536776074 -183.2385627718 1635.9766798829
-191.0185997222 -182.1159920346 1636.0451790449
-190.5435118790 -181.6770870902 1636.0409198959
-190.2500641145 -181.0851826735 1636.0757169511
-189.1007902511 -180.5848480970 1635.9999150831
-189.1711792950 -178.9522791192 1636.1986015923
-188.8777315305 -178.3603747026 1636.2333986474
-187.9793734879 -177.5438029097 1636.2237854012
-187.8070191092 -176.8498988449 1636.2846199258
-187.1415621382 -176.6762312928 1636.2271908897
-186.2523285920 -201.6597555971 1633.7489267738
-187.5530742473 -200.0185428375 1634.1044234125
-183.9113671648 -202.8185706320 1633.3248754393
-190.2591369498 -196.8578000216 1634.8135114849
-187.9236736712 -198.7510443645 1634.3018534034
-189.1120500098 -197.1004135610 1634.6448128898
-188.1585100049 -197.8109218256 1634.4434191697
-187.5053881029 -198.2643135515 1634.3094742239
-186.7999805049 -198.6568639257 1634.1764818806
-185.0653534323 -200.0358751910 1633.7997213475
-183.4508936008 -201.3120398409 1633.4499403241
-189.3624821926 -195.9357617035 1634.8152633710
-181.4993258195 -202.5599503591 1633.0625478439
-188.7850397603 -196.1132008028 1634.7236928948
-191.5644821567 -193.5231993277 1635.3731063324
-190.7022174705 -193.7332256471 1635.2429717967
-189.7275834678 -193.9338339226 1635.1003001088
-180.3701345044 -201.7313406125 1633.0247830681
-191.0283291230 -192.2926211630 1635.4557967475
-179.5078698183 -201.9413669319 1632.8946485324
-179.8917653155 -201.2960331073 1633.0189141337
-191.7227404236 -190.4312121731 1635.7640025848
-178.7079885286 -201.2532759763 1632.8800528560
-191.4549151976 -186.9647588649 1636.1480773003
-190.8274868452 -186.2346626454 1636.1595085310
-191.3026576612 -185.0888468756 1636.3550333167
-190.2624418891 -184.6064491510 1636.2864786210
-189.5249439959 -183.0202409205 1636.3874218038
-190.5486653218 -181.2993507216 1636.7187967405
-189.0823660568 -180.4424868434 1636.6434205078
-188.1100318299 -179.7964011517 1636.6027979243
-187.6316626410 -179.3610936465 1636.5969289899
-187.4537115551 -178.6686696025 1636.6585088297
-187.2835583937 -177.8639808992 1636.7345310270
-187.2936560941 -176.9050222726 1636.8510224888
-186.6350360434 -176.6239846906 1636.8046842899
-186.7653009850 -175.5621794485 1636.9481552613
-186.2947297206 -175.0146072840 1636.9567286844
-185.1866324034 -174.6958975265 1636.8602418764
-187.7609432804 -200.3392165287 1634.6549406288
-188.5800975358 -199.1090640127 1634.9039481725
-189.3160424480 -198.2671479062 1635.0958769657
-185.0007663187 -201.8592336483 1634.1328104060
-190.8033774021 -196.3587909398 1635.5087355058
-188.4694756743 -198.2530504608 1634.9937205045
-184.4020887041 -201.5270767085 1634.0994637015
-182.3683952189 -203.1640898323 1633.6523352999
-190.0091297121 -196.4055065916 1635.4056558877
-188.5758527123 -197.5280269212 1635.0943006857
-187.6229089007 -198.2389530154 1634.8915640433
-186.5576043569 -198.9405152917 1634.6761732379
-182.7458291106 -201.7842196683 1633.8652266684
-190.0263137126 -195.3343321042 1635.5370833365
-180.6074974582 -203.2996065976 1633.4199445807
-180.6401265885 -202.0039073568 1633.5803729832
-191.5308326672 -192.3548006503 1636.0813693254
-191.5325715379 -191.5081509162 1636.1837958204
-190.7751978017 -191.8402044187 1636.0507920916
-178.7299941418 -201.8447224536 1633.3652522117
-192.1578945886 -189.8102212578 1636.4654969455
-190.8611178041 -186.4843319814 1636.7079293355
-190.1886922818 -185.5814993403 1636.7344308523
-190.6707643408 -184.3232553708 1636.9454759069
-190.8526281570 -183.3222577985 1637.0886343618
-189.7658947893 -183.5139574708 1636.9321686208
-189.5274670658 -182.8731048544 1636.9802858360
-190.0773033382 -181.4511492288 1637.2194086875
-189.0506116189 -181.5913996217 1637.0765202664
-189.2324754352 -180.5904020493 1637.2196787213
-189.1741726574 -179.7952015946 1637.3085278964
-188.2752868001 -179.7202910520 1637.2072945921
-187.8044150474 -179.1729731766 1637.2156030044
-188.0094465584 -177.8351884742 1637.4022628899
-187.5540199355 -177.0633458455 1637.4395722559
-187.0308290992 -176.4552148728 1637.4488038251
-186.3275133174 -176.0014317385 1637.4173034344
-185.2425188203 -175.3464816767 1637.3632641885
-186.2680319426 -200.8132502340 1636.4609565351
-185.6226104198 -201.1546073334 1636.3426435238
-187.8018858608 -199.0776085056 1636.8492996161
-184.2638285556 -202.0010964617 1636.0787421095
-189.8087003788 -197.0426522739 1637.3300422401
-185.9779822800 -200.1110915890 1636.5069768354
-182.7482635352 -202.6649870898 1635.8168835803
-190.2241721744 -195.9476821480 1637.5076727666
-189.5108118329 -196.4528141770 1637.3620843637
-188.7530293227 -196.7847594911 1637.2311550991
-187.6346472001 -197.4254310937 1637.0204425447
-189.1005622995 -195.8535642948 1637.3815102340
-187.8619803061 -196.5971446603 1637.1442032496
-190.0569335137 -194.2955047361 1637.6788156952
-188.5100129600 -195.4086775569 1637.3610444593
-190.6605439987 -192.9338509178 1637.9103160434
-189.4533175386 -193.2281490906 1637.7289217657
-189.7930116321 -192.4092744426 1637.8652987239
-191.0420436399 -190.7062635249 1638.2151120833
-190.1196390901 -190.9679308869 1638.0722475272
-190.4070721315 -190.0881900721 1638.2093054471
-189.8400394419 -189.3063416896 1638.2307742025
-191.1047492163 -187.3786896756 1638.6085439153
-190.3783222393 -187.2613527969 1638.5335273574
-189.6623452767 -186.1845853661 1638.5710171746
-189.6649564078 -185.3374753621 1638.6695453730
-190.2764057762 -183.8635009956 1638.9150238978
-189.9262561782 -183.2127967320 1638.9477469830
-189.3958067740 -182.7164556127 1638.9405784234
-188.9855572406 -182.1172057305 1638.9600042937
-188.1546081595 -181.8781365183 1638.8863496592
-188.5413355529 -180.3853385812 1639.1065956774
-187.7704864071 -180.0948149876 1639.0462382579
-187.8488752402 -178.9716095058 1639.1860200246
-187.3184258360 -178.4752683864 1639.1788514650
-186.2653659109 -177.3702655996 1639.1784925223
-186.1111938858 -176.3405570954 1639.2790636059
-184.8752230234 -176.2370274568 1639.1402848199
-184.2464816704 -202.5349879491 1636.6273102954
-182.5079473354 -203.3166172555 1636.3327313801
-189.4174199386 -197.0236181556 1637.8503391460
-187.8186160615 -198.3234620077 1637.5161900057
-185.2541722297 -199.7249061753 1637.0546194713
-186.0335049073 -198.9323531323 1637.2348011655
-187.1101046541 -197.8782504774 1637.4792742139
-182.4984915617 -201.5083282143 1636.5284257785
-178.1905838360 -204.7643322872 1635.6548928703
-180.3437833297 -202.6561269774 1636.1438389672
-188.5275308132 -194.8145232991 1637.9835671129
-178.7305941199 -203.2206123870 1635.8880007666
-191.0567656821 -192.0548862987 1638.5887353539
-176.9776744521 -203.2668832510 1635.6717327911
-189.4291911394 -191.8840132658 1638.4112080931
-189.7586496952 -191.0598433934 1638.5406203121
-189.8953626766 -189.6572448456 1638.7097686583
-189.8393300837 -187.6762176225 1638.9186531317
-190.1222118202 -186.6793095681 1639.0612554257
-190.2718013962 -185.0516629161 1639.2564521178
-189.1213629027 -185.4227170509 1639.0774317383
-189.1664309837 -184.6350486861 1639.1686009489
-189.0925922371 -183.9520001660 1639.2340536178
-189.1376603181 -183.1643318012 1639.3252228284
-188.2314737773 -183.2136221944 1639.2106597052
-188.1046199141 -182.4703595446 1639.2762782762
-188.5128467757 -181.2563075934 1639.4576212849
-187.3093931655 -181.5671475985 1639.2787668075
-187.0636324746 -180.9285047934 1639.3186688367
-187.5972044612 -179.4973089453 1639.5387525601
-186.6974562177 -179.4340752864 1639.4372136099
-186.5770406517 -178.5782885845 1639.5158563538
-185.8556526498 -178.3581251584 1639.4528922162
-184.5421303873 -201.9458983931 1637.3161270939
-182.9566507898 -203.0222202598 1637.0110647568
-184.6995832021 -201.1655711328 1637.4158022209
-182.6643368129 -202.2105033250 1637.0588900016
-182.0298320753 -202.4488334793 1636.9566276077
-181.0852873749 -203.1742288091 1636.7662151868
-180.5567941758 -203.5330027647 1636.6645277411
-180.0283009766 -203.8917767203 1636.5628402954
-187.0015951186 -197.4261731745 1638.0829774471
-178.3368098407 -204.8476547857 1636.2572030101
-188.4136325966 -195.4333854089 1638.4612150219
-178.6259948321 -203.7373857960 1636.4070031747
-179.4115222249 -202.8313247642 1636.5965531732
-190.8939522993 -191.5368640046 1639.1664152374
-178.0686520092 -202.6245593579 1636.4533910490
-190.2723078809 -191.5500013934 1639.0889278882
-176.0061204889 -203.1588841186 1636.1457414449
-175.1981736319 -202.4807483741 1636.1166542887
-190.5567993939 -187.5567535170 1639.5351661668
-189.9721714400 -185.9333196475 1639.6308166563
-188.8814697511 -186.2528565099 1639.4643168578
-189.8244499587 -184.5664682178 1639.7535419833
-188.5474458313 -184.1947319468 1639.6354423778
-188.7692002416 -182.2884408596 1639.8589927283
-187.4921961142 -181.9167045886 1639.7408931228
-187.3058936756 -181.2254314551 1639.7892933158
-184.9126394095 -177.6670493457 1639.8627821634
-186.7654789257 -200.5387108255 1638.0638535299
-183.4228523290 -202.7362411904 1637.4282288311
-188.6514090184 -197.1654739249 1638.6397126838
-187.2314574575 -198.3100433251 1638.3482073439
-185.8115058966 -199.4546127253 1638.0567020039
-184.8670162694 -200.1801222742 1637.8664516320
-184.3385558341 -200.5389544533 1637.7647993570
-183.8100953988 -200.8977866323 1637.6631470820
-184.3900297548 -199.6380732241 1637.8628758690
-189.6458479854 -194.5779742455 1639.0257187727
-181.3316983865 -201.7989114893 1637.2660163971
-177.5537398776 -204.7009496850 1636.5050149093
-178.9929941587 -203.2185498238 1636.8332989412
-188.0990721201 -194.9788098608 1638.7943193318
-189.8612270702 -192.7840569780 1639.2349259747
-177.2872227886 -203.4387024225 1636.6007075793
-190.6387623715 -191.0293656647 1639.5094040667
-176.2802512578 -202.2943766501 1636.5931587463
-189.7105263028 -189.4948269500 1639.5512907967
-189.8471699255 -188.0911226249 1639.7110624356
-190.3324511776 -185.5246246636 1640.0321949416
-189.4201327508 -185.6870834443 1639.9032423896
-189.4284274882 -182.5785364330 1640.2207991326
-186.7448066260 -179.1690946883 1640.2373151676
-186.3866855948 -178.5222806754 1640.2590531466
-186.0879973054 -177.8230841811 1640.2934479966
-185.4921453074 -177.3858000938 1640.2645584916
-184.7838620661 -176.9406708157 1640.2226148086
-184.3583494722 -175.4977405365 1640.3171155576
-186.1817449972 -200.2475087454 1640.4091646944
-187.9572344584 -197.7081815705 1640.8727606971
-180.5811504482 -203.6053929028 1639.3917307269
-179.3011579482 -204.3115145025 1639.1650639974
-178.1113782462 -204.4015508781 1639.0085350675
-179.4284596439 -203.0192317346 1639.3044841582
-188.3984449289 -193.7787459958 1641.3034236783
-178.3288927400 -202.4931828861 1639.2180930280
-176.5336962395 -203.3344911530 1638.9144449912
-176.0148202023 -202.5079687755 1638.9289847271
-189.2646466019 -190.3302089780 1641.7409301671
-174.7842795659 -202.3124936502 1638.7946944792
-188.3961197480 -189.7065106360 1641.6926019713
-188.3516867769 -188.4592900906 1641.8063616964
-189.6403702061 -186.5660602650 1642.1476435895
-188.7285729716 -186.7312590574 1642.0184859723
-189.1276756518 -185.6268382969 1642.1737303856
-188.7397733471 -184.4697421962 1642.2361692392
-188.1899898951 -184.2067177720 1642.1929736741
-187.9602967008 -181.1938409502 1642.4525679895
-187.1732917158 -181.1411656100 1642.3597624298
-186.9262166631 -180.5025052400 1642.3901264182
-185.8847925520 -177.8877514406 1642.5107269331
-184.8074421336 -177.9853128647 1642.3674559404
-184.8692569631 -176.8583169585 1642.4829265424
-184.5221155927 -175.9867323586 1642.5231267140
-187.2374318032 -198.3232365434 1642.1621919029
-187.9179335842 -197.2950924275 1642.3382672892
-186.0208402517 -198.8615269644 1641.9652939112
-184.1237469193 -200.4279615013 1641.5923205332
-182.7025600681 -201.5746042532 1641.3153453652
-180.1504003448 -202.7561330414 1640.8975498294
-177.5394472905 -204.9522552557 1640.3805791364
-187.0111537888 -196.3834283242 1642.3105824834
-178.5703463400 -203.7219999040 1640.6176337183
-176.7124485616 -204.6120388235 1640.3107771117
-177.5315247398 -203.1407489527 1640.5439104362
-189.7063355640 -191.7596628195 1643.0579815618
-175.7991361739 -203.8131073231 1640.2720728439
-189.8050194281 -191.0307932290 1643.1360981094
-189.7049456056 -189.8354239136 1643.2323323234
-189.2211165736 -188.4437093956 1643.2996654132
-189.2327917998 -186.2940052840 1643.4960550986
-187.9467044496 -182.1869050164 1643.7120147728
-186.6169738909 -181.7552913278 1643.5893120714
-186.6025187478 -180.0565176277 1643.7416239092
-185.5702297399 -179.3625340736 1643.6789200890
-185.6819787886 -178.4081992773 1643.7790755604
-184.9608914953 -178.1885001047 1643.7112341643
-184.1779914701 -201.8322514757 1643.1439449780
-184.9731232727 -200.6956215114 1643.3412545242
-183.7708156345 -201.0134711628 1643.1670736793
-181.4647401767 -202.9571702606 1642.7147390026
-186.4692198372 -198.0766866203 1643.7550782882
-186.5119305795 -197.2871992690 1643.8302442676
-179.5222145474 -203.3965947104 1642.4398905852
-187.7159669743 -195.8942408777 1644.0999314248
-186.7856861454 -196.3995744911 1643.9421668832
-187.6523076067 -194.9846463787 1644.1728260818
-175.7601092459 -205.1323077757 1641.8291727516
-186.6278597371 -195.1443050297 1644.0342662118
-187.6540363633 -193.9095376388 1644.2683323941
-188.0873470940 -193.2020735826 1644.3836619934
-188.6287566911 -191.5396079343 1644.5967692275
-188.8737333405 -190.1407939533 1644.7505081701
-187.4813628644 -190.8424024197 1644.5192303562
-187.5606828143 -189.3762116245 1644.6588243180
-187.3330955039 -187.3241315713 1644.8130803065
-187.7376273181 -186.1054783119 1644.9702262328
-187.0096123962 -186.0014852956 1644.8910346544
-187.5327173895 -184.6773713693 1645.0719278973
-187.2258101291 -184.0914821115 1645.0865899240
-186.5588105534 -182.8596500219 1645.1147783161
-185.0086136691 -182.3059890270 1644.9755998308
-185.0635274806 -181.2909338610 1645.0722418044
-184.8281098790 -180.4267464550 1645.1202534835
-183.9937248472 -180.2026462910 1645.0387905826
-183.9361670143 -179.1802678847 1645.1224232366
-183.7722390714 -178.0377823306 1645.2037845681
-182.3546796260 -202.4341640845 1645.8319191493
-180.5348669084 -203.7302953226 1645.4967056224
-184.1409003483 -199.6649785127 1646.2988476254
-181.8406878875 -201.4956353338 1645.8574222662
-181.1352651044 -202.0155490188 1645.7258708171
-179.7244195382 -203.0553763889 1645.4627679189
-187.4626196221 -195.6377717683 1647.0637618478
-184.2669695339 -198.3720079161 1646.4329075075
-175.7351180777 -205.8512207698 1644.7321184005
-178.2374868481 -203.4113985555 1645.2536343313
-185.8981836076 -196.3847655256 1646.8094205367
-187.8819061071 -192.0443876424 1647.4445100986
-174.2038681270 -203.8849115603 1644.7316637568
-187.8254473813 -189.9475560177 1647.6309760028
-186.5220528711 -185.8463051179 1647.8542150439
-185.6051647137 -185.0513303596 1647.8187140519
-185.4758571960 -184.3074972438 1647.8719017183
-185.3418951460 -182.6016372097 1648.0131598989
-184.5071648452 -182.3777177790 1647.9347961162
-184.6271632981 -181.1974970581 1648.0577494784
-183.5627554251 -179.9969388112 1648.0421165933
-182.7401665896 -179.5475196290 1647.9859658502
-182.0580619276 -203.0962051926 1646.9917632501
-184.9795274225 -199.8184220538 1647.6420787947
-186.5073262017 -197.3635409263 1648.0514463751
-183.6877780148 -199.6860143036 1647.5024718085
-182.2780039214 -200.8472509923 1647.2279845252
-179.5227891612 -203.0038621891 1646.7020925257
-178.5365034252 -203.5679547427 1646.5332843465
-183.6825049731 -198.6113160002 1647.6023667445
-187.5581375327 -194.2586331334 1648.4654865393
-176.2423609038 -204.3379742236 1646.1913298621
-185.1084825284 -195.9242681047 1648.0214680559
-176.0601949596 -203.4225277844 1646.2555164161
-173.4872422278 -205.3071088911 1645.7765125716
-186.8347467978 -191.6715456802 1648.6223378193
-187.2100091062 -190.9019290483 1648.7384736754
-185.9021523208 -191.1078559756 1648.5653273701
-187.3548794215 -189.0443934803 1648.9292528375
-186.4436653640 -189.2170674016 1648.8058867713
-186.5134640008 -187.7509504659 1648.9512238203
-186.7869050853 -186.7491670660 1649.0770934074
-186.7655246659 -186.0128034400 1649.1434490244
-185.6614064124 -185.4955873739 1649.0619099663
-185.3291931953 -184.1755016699 1649.1462870032
-184.1125154661 -183.6516752874 1649.0521221301
-184.8040757823 -182.1655259783 1649.2724910482
-183.7803022491 -182.3315895834 1649.1364991670
-184.2949696628 -181.0046921386 1649.3211597032
-183.2711961296 -181.1707557437 1649.1851678220
-183.6089706408 -180.0031101633 1649.3341199761
-183.1212449408 -179.5786399496 1649.3164330140
-183.0462693464 -178.7825820525 1649.3820656100
-182.2637221424 -178.6235316127 1649.3048646779
-182.0225918974 -177.7611691283 1649.3571484379
-182.1995808840 -176.4144407346 1649.5039315289
-180.4463236615 -203.7399542396 1651.3091986996
-179.4864367340 -203.7484781531 1651.2004866898
-180.9778147527 -201.7309683516 1651.5504984335
-178.5220589021 -203.8698648771 1651.0810713707
-176.5349214810 -205.5798548624 1650.7030977120
-184.0417981623 -198.4916245981 1652.1877587979
-181.1849829947 -200.7800887252 1651.6597166249
-179.9007732179 -201.8467189001 1651.4189230726
-178.9680272632 -202.5916691700 1651.2467195734
-178.0352813086 -203.3366194398 1651.0745160743
-177.1025353540 -204.0815697096 1650.9023125751
-185.3709169832 -196.2963663176 1652.5355854428
-182.9151611326 -198.4352628431 1652.0661583800
-176.0661075052 -204.5951581829 1650.7393556527
-176.2642939383 -203.8700041775 1650.8271672256
-185.0688531096 -195.3765553066 1652.5847317915
-186.0736490811 -194.2394032876 1652.8004768940
-172.7900738565 -206.0710379340 1650.2375964774
-186.1005945076 -193.5622264243 1652.8646967496
-185.5238032795 -193.8726339784 1652.7717866128
-184.0097751924 -195.0408546129 1652.4959696677
-184.8206800889 -193.1023905690 1652.7623178514
-171.8299913827 -204.6659586278 1650.2565958124
-185.7893532788 -191.4545378147 1653.0201478246
-184.6537344402 -191.6239016808 1652.8771407882
-185.7936486368 -189.9280717845 1653.1585624788
-184.4416842012 -189.8604376784 1653.0126419773
-184.6217114703 -188.1731316956 1653.1853516580
-184.7703024085 -187.2758653867 1653.2831381739
-183.4001788089 -186.2460793031 1653.2221157802
-184.4364111113 -184.3188876102 1653.5127840475
-183.4134559758 -184.4938876517 1653.3819370529
-183.5665378184 -183.4837585323 1653.4904268780
-183.0752693205 -183.0633759055 1653.4731682724
-182.8768873410 -182.3749266912 1653.5130680444
-182.4441961468 -181.9009307469 1653.5072411143
-182.1872368636 -181.2660948501 1653.5357092107
-182.0519230922 -180.4111695077 1653.5977439675
-181.3308362839 -180.0923773405 1653.5454619690
-180.8440586904 -179.5591319032 1653.5389066727
-180.3662629057 -178.8001608448 1653.5537579948
-181.1500854173 -203.0290937132 1652.0383627754
-183.2689007452 -200.7565688190 1652.4787042915
-183.7454990250 -200.1010575156 1652.5906937993
-179.1285820655 -204.2319855699 1651.7047863813
-177.9715889409 -204.9677292003 1651.5096276369
-183.9013075807 -198.9777053974 1652.7088071402
-177.0159624858 -204.8650396171 1651.4121248180
-176.0258334560 -205.6653846621 1651.2298069741
-185.1599255034 -197.0594494011 1653.0213328848
-183.1796674437 -198.6601394911 1652.6566971971
-181.6045726188 -199.9976753440 1652.3608971639
-178.5670633061 -202.6781882169 1651.7813916572
-182.3865922617 -198.7349306511 1652.5614334007
-185.4370400399 -195.7157797928 1653.1727445417
-175.7309206630 -204.5202678762 1651.2995420761
-183.2856050636 -197.3647477966 1652.7846660754
-185.8268349137 -194.3775513513 1653.3362507584
-173.3430694732 -204.9704000134 1650.9925469306
-171.8307840496 -206.1413374570 1650.7186969944
-172.2747626810 -204.8622692633 1650.8829495519
-184.7191657558 -192.3450308496 1653.3947907481
-170.1295234529 -204.8717664203 1650.6425510384
-185.3318914084 -189.6039725522 1653.7089622809
-184.5973128059 -189.6250446314 1653.6250467034
-185.2124683540 -188.2976985239 1653.8127420396
-184.2439034334 -188.5336469263 1653.6834335864
-184.3042829393 -186.9533363271 1653.8318598801
-184.3929692718 -186.1094619467 1653.9174212459
-182.9146394540 -183.4370610539 1653.9919406060
-182.2471830747 -183.1786553953 1653.9405770037
-181.5797266953 -182.9202497367 1653.8892134014
-181.3802429521 -182.2320914318 1653.9286355506
-181.8285344053 -180.8401439096 1654.1034899862
-181.5163703249 -180.1465444377 1654.1308175757
-181.0287165060 -179.6141022082 1654.1241005083
-179.6051174149 -179.9411652715 1653.9358119379
-182.9657177623 -200.5802055890 1653.5736810438
-179.3776493809 -203.2524372473 1652.9403456308
-179.6256677661 -202.5846240657 1653.0264975746
-184.2452069383 -197.7517339729 1653.9640358324
-174.2079358348 -205.9694526632 1652.1272232047
-182.1356635349 -198.3957006061 1653.6729975005
-185.1132712862 -195.4143878373 1654.2655676356
-182.3292131058 -197.6689915241 1653.7582590970
-184.0838500462 -195.8222814030 1654.1153317336
-185.1040171640 -194.0003967622 1654.3885631205
-184.2962390721 -194.5309493315 1654.2522124268
-183.7214078013 -194.8453871108 1654.1607183995
-172.1980759378 -205.3172200220 1651.9609610521
-184.3226143091 -193.7404771463 1654.3244791622
-185.1492318561 -192.6453015874 1654.5124489526
-170.3064077915 -206.1967702567 1651.6734841092
-170.5074931444 -205.2442119789 1651.7793933444
-183.5675866913 -192.6900853451 1654.3326619394
-185.1588171888 -190.6666875228 1654.6870635342
-169.1587948007 -205.0728809465 1651.6444629975
-183.5658683510 -191.0502450742 1654.4763050629
-184.2910840514 -189.6114285188 1654.6831417975
-183.4983775235 -189.6902826966 1654.5880863812
-184.2818299292 -188.1974374437 1654.8061372824
-183.1397031696 -188.6004638065 1654.6437968665
-183.3990252277 -187.5938768312 1654.7609202683
-183.4254004648 -186.8034046460 1654.8331870037
-182.3716535385 -186.2490055281 1654.7646513092
-183.1006371299 -184.6972643749 1654.9818118631
-182.8395967315 -184.0640110793 1655.0083315849
-181.7050057539 -184.2411882463 1654.8666388077
-181.3274919450 -183.7159923457 1654.8707301963
-181.8893012026 -182.1004880892 1655.0748958891
-181.2319075402 -181.5066618825 1655.0538879027
-180.5782817689 -180.7999110779 1655.0432037357
-179.5752357659 -180.4173324583 1654.9652345690
-179.0569228602 -179.0379012692 1655.0285978319
-182.3374313625 -201.2041375787 1654.6202362916
-177.6457598748 -204.7946104486 1653.8092640852
-180.6821215766 -201.7560232230 1654.3938153261
-178.4875448782 -203.2465845537 1654.0302525145
-177.0933802075 -204.4317639750 1653.7793909582
-175.6992155367 -205.6169433963 1653.5285294020
-183.9777991775 -197.7103047094 1655.0907275610
-181.6009593886 -199.5890696922 1654.6748879417
-177.5311980175 -203.1493966698 1653.9341844714
-174.0983914816 -206.2277072150 1653.3031268914
-174.5756503039 -205.4560886244 1653.4195617053
-173.1307610819 -206.4694222363 1653.1775259826
-174.9439376646 -204.5667136850 1653.5339596093
-183.8707596795 -195.8391556605 1655.2353365243
-184.1845613094 -194.8909025468 1655.3487159733
-183.3841492818 -195.1962844562 1655.2360147180
-172.9072277631 -204.7064521088 1653.3004094589
-171.4585773615 -205.8327533557 1653.0485294476
-184.8084033896 -193.1073639544 1655.5656305827
-183.3127896165 -193.9488517569 1655.3324206935
-171.2087157852 -204.8605566736 1653.1025029040
-170.0118589235 -205.2056619026 1652.9432953097
-169.2696938064 -205.4569543512 1652.8414567979
-183.5589927607 -191.6401983089 1655.5520504066
-184.5717573158 -190.0428716670 1655.7957827780
-184.5398386628 -189.3061876824 1655.8538300543
-183.6304551736 -189.4938132430 1655.7390918891
-184.0062648936 -188.3785030335 1655.8731783702
-184.3238277032 -187.3172822848 1655.9964021077
-183.0349760619 -185.3393679247 1656.0211806309
-181.5864284079 -183.0718514065 1656.0527480776
-181.0378099202 -182.5960372979 1656.0327192392
-180.5888113188 -180.8234897430 1656.1318403185
-180.0514763700 -180.0087727292 1656.1413443457
-178.8189396756 -179.7301616086 1656.0303397391
-180.2615328639 -203.2243694330 1655.6316844515
-178.8228542132 -204.2468095728 1655.3909541782
-176.7563749813 -205.5292389666 1655.0600732553
-179.1952211245 -203.0158334437 1655.5305867342
-175.7810552274 -206.1159928859 1654.9053884812
-181.1158944761 -200.8795484859 1655.9136863305
-175.1594665809 -206.1499292741 1654.8340124395
-182.7531804518 -198.7895145498 1656.2617820976
-181.4820494527 -199.8746252228 1656.0345442786
-180.2109184536 -200.9597358958 1655.8073064596
-179.0618391135 -201.7098721478 1655.6203546234
-178.1382272871 -202.4682181555 1655.4576509288
-177.6200544954 -202.8453387205 1655.3702370461
-177.1018817038 -203.2224592854 1655.2828231634
-183.3086248514 -197.0560767892 1656.4618436277
-180.9949363344 -199.1214814580 1656.0410034354
-182.1626514785 -197.6931866083 1656.2842790954
-181.4190111731 -198.0620974174 1656.1726170710
-183.5103381437 -195.8754565599 1656.5785964255
-171.9936034861 -206.3740719924 1654.4663765435
-171.2530691480 -206.6299563686 1654.3641018231
-184.4743275454 -193.6477669236 1656.8633350714
-183.3221422379 -194.5109296085 1656.6669959311
-183.6851912472 -193.6190327784 1656.7784665753
-184.2157879082 -192.7898064816 1656.9034296738
-183.4814655048 -192.8196379919 1656.8199295613
-184.0151681331 -191.8773852621 1656.9542799637
-184.2903311242 -190.0771720904 1657.1287249686
-182.7420246839 -190.9824809192 1656.8852579284
-183.6904842490 -189.3199234477 1657.1230600546
-183.2923506661 -187.3820545758 1657.2341479383
-181.8796132712 -185.4072418029 1657.2361191842
-181.3252623888 -185.0476381146 1657.2036607418
-181.0605108169 -184.4157305386 1657.2249807363
-181.2011982798 -183.4025975197 1657.3215905428
-180.9364467079 -182.7706899437 1657.3429105373
-180.0314706855 -182.8508773536 1657.2365306665
-179.1513424017 -182.0268532998 1657.2052492272
-179.7553887615 -180.5780340607 1657.3879045329
-179.2010378790 -180.2184303724 1657.3554460904
-178.1285142050 -180.2359472490 1657.2355737653
-178.3395453993 -178.7162477207 1657.3804884749
-180.1566014478 -202.6773905093 1656.5317309136
-180.9739012438 -201.3435039851 1656.7246225783
-179.3697144935 -202.5412104884 1656.4549124532
-182.9420618242 -198.9117941544 1657.1292972781
-177.4226089572 -203.9551819417 1656.1305961256
-179.1582579314 -201.8561188142 1656.4839855104
-176.5735000649 -204.1000571700 1656.0253310974
-182.3488590317 -197.5932022601 1657.1646046452
-175.3908301840 -204.0088691805 1655.9011746988
-181.2672385332 -198.0707241916 1657.0080543019
-174.5992643309 -204.0988532435 1655.8064988223
-173.9779881462 -204.1372458524 1655.7346616931
-182.4990368504 -195.7871893005 1657.3197135690
-183.7121195729 -194.4083107448 1657.5599431719
-184.1865005828 -193.2906891706 1657.6982286341
-183.3855769323 -193.8330014013 1657.5678379256
-171.5363897504 -204.9144173743 1655.4043300799
-183.3444100386 -193.0963182731 1657.6197497299
-169.6608639494 -205.5950054106 1655.1441751522
-182.4176462574 -191.5416631611 1657.6361657266
-183.7186848607 -188.6378268949 1658.0030576855
-182.1355531546 -188.8177950208 1657.8137059326
-182.0695955125 -186.5528544709 1657.9800304976
-181.0090300581 -186.0126380250 1657.9038385265
-180.9865787592 -184.3712985613 1658.0271799951
-180.4275245124 -184.1286359210 1657.9837894337
-180.4439006578 -183.3370616275 1658.0462903898
-180.5753628817 -182.4357050033 1658.1299696495
-180.7068251056 -181.5343483791 1658.2136489091
-180.0326847804 -181.4014680695 1658.1490800442
-179.4736305336 -181.1588054292 1658.1056894828
-179.6649752461 -180.0894755977 1658.2088866022
-178.6455766854 -180.2859422800 1658.0807828268
-178.4023110270 -178.4118393099 1658.1974825204
-177.7974109877 -177.6586576253 1658.1881463474
-176.4631670333 -176.7144047544 1658.1125808656
-177.5139591648 -203.3385211813 1656.4597941012
-176.1386223745 -204.5472106050 1656.2173162652
-183.5542569767 -196.7637894331 1657.6177800454
-173.9187414302 -205.6770867903 1655.8862741696
-182.9331570271 -196.8040285264 1657.5454313665
-181.3978852224 -197.4992367717 1657.3228178050
-182.8469287212 -195.3305292620 1657.6440767760
-184.1136026647 -193.8926369006 1657.8912572056
-170.8583953393 -206.5019140415 1655.4837483265
-169.3784747098 -207.2551648317 1655.2630535961
-182.5844493711 -194.2484916023 1657.6942644120
-183.7424604679 -192.5813963032 1657.9461474352
-168.6650279432 -206.1612582042 1655.2637295588
-183.5947624756 -191.3892080375 1658.0172532456
-168.5071324324 -205.5346591780 1655.2921340892
-183.1108784247 -190.0750001982 1658.0597655569
-182.2150621028 -189.7119087192 1657.9863629781
-182.8606360968 -188.3142554512 1658.1611947288
-182.8749126227 -187.5224305160 1658.2209765207
-181.9115081034 -187.7800035793 1658.0944135748
-181.9563771850 -185.2914109258 1658.2822992065
-181.1424255865 -183.5158299692 1658.3218387867
-179.7362116655 -183.3090626733 1658.1799251914
-179.1765814023 -183.0679907679 1658.1351161117
-179.3076787898 -182.0528973789 1658.2243563339
-178.3052391249 -181.3474851143 1658.1641966047
-177.9198204022 -180.8280694520 1658.1593050425
-177.2739618330 -179.1134982822 1658.2131413722
-176.4641941613 -204.5166752835 1657.6833039954
-178.9404512998 -201.8060518833 1658.1282319277
-177.1045441096 -203.4573298816 1657.8207987288
-175.2686369193 -205.1086078800 1657.5133655298
-182.7973682102 -197.6588675308 1658.8165521405
-181.7273437285 -197.5745131547 1658.7029071026
-173.6880573972 -205.1809091292 1657.3331676220
-171.8606745019 -206.3793815195 1657.0550312943
-172.6818648325 -204.7018105658 1657.2513314069
-171.5947917608 -205.5230674058 1657.0790926263
-171.0353223196 -205.2820574044 1657.0320004584
-182.5975487556 -193.2933099549 1659.0676642254
-169.0037575265 -205.3426728957 1656.8024100677
-182.7571786961 -190.8058005503 1659.2411451385
-181.5744078967 -190.7185247347 1659.1151519799
-181.1490958066 -186.3471242799 1659.3415678233
-177.4582982382 -204.3946562272 1658.0236572078
-182.1889377021 -198.6220944092 1658.8871145776
-175.4840241107 -204.4020633236 1657.8052938600
-174.8628283629 -204.4432122330 1657.7342919341
-172.1111393600 -206.8667405225 1657.2872730276
-172.7488922872 -205.9197690982 1657.4136553399
-173.5097499832 -204.4094704199 1657.5869305121
-183.5079061525 -194.3503674592 1659.2852527164
-170.7725485123 -206.0404040089 1657.1883694438
-168.6239654687 -206.3266629145 1656.9342795475
-181.6753636207 -192.7753969724 1659.1760851632
-168.2469096111 -205.3543851303 1656.9501407933
-167.3427877105 -205.4451184026 1656.8449772970
-181.5320994161 -191.3558315664 1659.2441968392
-181.3479793015 -189.0856516439 1659.3580875682
-182.0783293245 -186.1585993774 1659.6117545349
-179.0391163421 -179.6258830621 1659.6624964700
-177.9053420833 -179.9374483275 1659.5189276402
-176.9277869523 -177.8740413093 1659.5330124431
-176.3169394417 -177.3490511471 1659.4966232587
-179.0564155917 -202.6366562014 1659.2721501236
-177.1224707740 -204.3086635769 1658.9878286330
-177.5822715698 -203.4086431339 1659.0792937903
-179.0691788955 -201.2768165126 1659.3380903938
-176.9633405837 -203.2296715673 1659.0222169805
-174.8575022720 -205.1825266219 1658.7063435672
-180.6689092029 -199.1466247286 1659.6087632416
-177.5971620909 -201.8221634970 1659.1562241056
-174.7521245509 -204.3876519661 1658.7329324806
-172.7665544813 -205.5489020397 1658.4674004692
-180.3990832483 -197.8393579334 1659.6422653899
-172.0337369050 -205.4816156097 1658.3929523926
-170.5649109263 -205.6870026719 1658.2275711719
-181.5858115406 -191.6231077336 1660.0632540713
-166.1658782509 -205.5099240401 1657.7698926675
-181.2584702542 -184.4215674497 1660.3706211464
-179.8119800573 -182.2472350565 1660.3206353986
-178.9104598128 -182.1208363834 1660.2311204669
-177.9547267576 -203.5974236791 1659.5961874498
-177.2766319497 -203.8172653436 1659.5139269100
-179.4324221808 -201.4589024137 1659.8525014262
-180.7382784458 -199.8286681987 1660.0669549568
-178.2440196748 -202.1836203023 1659.6925739984
-176.1466668913 -204.1458908983 1659.3786006196
-174.0493141078 -206.1081614943 1659.0646272408
-179.8345379446 -200.0462359790 1659.9608234555
-178.4742962805 -201.2792409180 1659.7590355817
-176.3786800892 -202.9015165383 1659.4610336862
-176.9468463707 -202.1138796389 1659.5579778840
-174.0024539414 -204.2376206570 1659.1465026582
-182.2269722860 -195.5368454206 1660.4244216603
-171.7378929121 -205.8015250349 1658.8332594555
-172.4761617596 -204.8455960608 1658.9560926159
-182.9773972786 -192.2009516167 1660.6590552034
-167.3320132532 -206.8905008787 1658.3145374301
-168.0141601094 -205.8773376042 1658.4340647640
-181.9660437074 -191.3973975278 1660.5889026712
-166.6602859499 -205.8636942990 1658.2908389954
-182.3687383353 -189.8713994346 1660.7025485282
-182.3785790242 -187.9447612390 1660.7930535998
-181.9319185502 -187.0335602021 1660.7879022989
-180.7030233824 -184.6410890092 1660.7684123936
-180.4802720095 -184.0721568322 1660.7711605709
-180.3148003559 -183.3337956384 1660.7878622302
-178.9134871659 -181.5629431544 1660.7211880512
-180.1087539759 -200.3268592266 1661.5342980409
-181.0106449474 -199.0836662251 1661.6843690314
-173.2299211224 -206.5332375025 1660.5332725974
-178.0784551832 -201.3387880106 1661.2747833263
-177.0071571950 -202.2979223615 1661.1192112712
-175.9358592069 -203.2570567124 1660.9636392161
-175.0900836809 -203.9904049782 1660.8418637175
-174.4133837092 -204.4410641264 1660.7503972244
-172.1017121787 -206.6420219458 1660.4089441087
-180.5586719280 -197.9483446447 1661.6862381531
-179.8816404937 -197.8322560249 1661.6195796010
-171.2549422653 -205.6751269073 1660.3615924329
-170.5782422936 -206.1257860555 1660.2701259399
-169.3377361662 -207.1409104167 1660.0941680556
-181.6848920968 -194.4390735929 1661.9594142875
-170.4086363994 -205.5016787441 1660.2795096398
-169.6189763191 -205.7251822740 1660.1860296331
-182.0225128652 -192.9668989289 1662.0597250042
-181.2328527848 -193.1904024589 1661.9662449974
-182.0783631408 -192.0036559787 1662.1078668488
-181.2320572749 -191.8302078155 1662.0257840557
-166.2344157804 -206.1648851575 1659.8080825789
-180.6673893168 -190.9211288313 1662.0057933110
-181.1745496869 -189.9597119252 1662.1016819159
-180.5538325757 -189.6738272305 1662.0484340911
-180.8917848066 -188.7684003346 1662.1239368667
-180.2148859574 -188.8790108220 1662.0473551383
-180.1581075868 -188.2553600216 1662.0686755283
-180.2704047705 -187.3490201036 1662.1203049239
-180.5513134608 -185.3665441929 1662.2369744423
-179.5359983332 -185.5891347008 1662.1196210555
-179.0280424532 -185.1903569635 1662.0832715090
-179.1965213749 -183.8875218634 1662.1582348082
-178.8011278485 -183.0358024226 1662.1536683045
-178.1800129824 -182.0698204061 1662.1301900088
-177.0369959858 -203.9608597355 1662.0762766167
-177.9926487827 -202.5457386918 1662.2362202075
-177.3164695548 -202.8844938766 1662.1507800868
-179.7342910851 -199.5451259828 1662.5453573826
-177.8765162206 -201.1852011237 1662.2809247629
-176.9746690349 -201.5235149622 1662.1717201681
-177.7057534016 -200.5613915372 1662.2890370206
-180.1243995776 -197.5621028671 1662.6694676182
-172.3012674535 -205.3119083579 1661.5206358664
-181.0803272564 -196.2603415646 1662.8246956429
-181.2477914923 -195.5238342563 1662.8731701779
-169.5976500699 -207.1203680620 1661.1600131196
-179.8940586270 -195.6345459196 1662.7258677668
-169.5380719382 -205.8166207011 1661.2083010105
-167.1732313733 -207.7391021660 1660.8786094089
-181.4660376381 -192.4635625890 1663.0242549353
-181.4638385827 -191.5566846591 1663.0619794637
-181.2362464513 -190.7627251240 1663.0712239518
-165.4208686756 -206.3186849665 1660.7533793096
-180.6632803349 -187.1341100385 1663.1627108798
-179.3015758936 -183.9573892058 1663.1521598841
-178.5073399301 -182.1420886338 1663.1444332812
-177.9404212161 -181.0073878556 1663.1321777562
-177.2628675787 -180.7793443341 1663.0703154658
-177.1058131043 -202.6197411302 1664.5253548839
-179.4746052303 -200.0196194691 1664.8641054967
-173.1009331436 -206.1783368899 1663.9838879346
-176.2593003681 -202.6737148729 1664.4369636781
-173.1570019868 -205.5549312179 1664.0128761427
-171.8032632783 -206.7977591530 1663.8283574628
-180.3199818506 -198.0381958150 1665.0243179534
-179.6430790812 -198.6029200793 1664.9341710032
-178.6840945069 -199.3368081332 1664.8089272785
-179.0223788157 -198.7709974847 1664.8645627022
-172.9870578682 -204.4772836635 1664.0357557844
-180.7703370155 -196.1121944159 1665.1421545729
-171.7457909979 -205.0401972874 1663.8880896235
-179.2472556616 -197.2977894556 1664.9424925196
-170.2789789782 -205.9425248748 1663.7047414399
-178.6264885657 -197.3524874545 1664.8771089981
-179.9233564668 -195.3725123127 1665.0833368234
-179.0770442216 -195.7666242751 1664.9822712792
-168.5859535057 -206.0504723603 1663.5279590282
-167.1757449720 -207.2364295281 1663.3398008170
-166.1600232510 -207.4599291885 1663.2278166788
-179.5273325562 -193.7272434694 1665.1043326781
-166.2722945981 -206.4398766576 1663.2773435361
-180.8236658145 -190.8402330752 1665.3443587392
-179.9772199086 -191.0075862245 1665.2517427539
-164.2969868296 -206.3768497130 1663.0781386883
-180.1450254561 -188.4570927692 1665.3640560551
-179.1290364137 -188.2270748034 1665.2689710347
-179.4101157634 -186.3572199155 1665.3674395013
-179.1840359713 -185.7895986265 1665.3655557143
-177.2079930691 -184.4793982099 1665.2128234406
-177.5458095655 -183.1199317155 1665.2980323207
-176.4172818546 -183.4564486543 1665.1703195608
-176.5296200320 -182.5497755300 1665.2156216387
-175.9651222704 -182.3212060765 1665.1665519869
-176.0203891494 -180.3372475259 1665.2462375486
-174.8917277779 -180.4470056517 1665.1269743477
-174.1574195584 -179.3675474569 1665.0923347787
-177.4808481284 -202.3953975077 1666.7049097752
-175.2192533954 -204.4243436174 1666.4075330418
-177.5390127251 -201.4319134897 1666.7447757823
-178.8968172492 -199.7383230246 1666.9401226513
-176.6915706464 -201.8242625433 1666.6463530058
-171.9985294714 -206.1647200589 1666.0246631997
-177.8811380984 -199.5061463282 1666.8469936859
-178.5601412753 -198.6026579053 1666.9466815048
-179.1823926627 -197.8689488349 1667.0347046982
-171.3795073577 -205.0842470369 1666.0011003069
-169.3443142935 -206.7742348787 1665.7382957693
-178.0534117627 -197.8629444628 1666.9222752505
-179.9203677547 -195.5484308709 1667.1903735992
-179.2999328337 -195.2616625143 1667.1386093250
-180.2626949577 -193.5092773286 1667.2966202717
-165.1081130484 -208.1690482430 1665.2663257307
-166.2962676931 -206.6446366932 1665.4387650293
-164.4311281676 -207.9386728582 1665.2069255996
-165.3930829731 -206.6398331956 1665.3488214712
-178.3436292572 -193.3856835153 1667.1095189794
-179.3086115069 -190.3860481411 1667.3118463827
-162.5140807632 -206.6812152371 1665.0601119952
-178.3515006119 -188.9636146651 1667.2666409620
-178.5237742763 -187.3204127997 1667.3419225265
-177.6201858970 -187.5423820636 1667.2439214308
-177.7346986239 -186.6358914546 1667.2873945258
-178.0206776966 -184.5397445033 1667.3900341103
-177.6264426149 -184.0274042596 1667.3688132631
-176.3839581360 -184.3609585926 1667.2330545643
-176.6119744417 -183.1149092785 1667.2998569105
-176.3873892394 -182.4333901195 1667.3015436336
-176.0497041174 -181.8646569040 1667.2879586432
-175.8251189150 -181.1831377449 1667.2896453664
-175.7703854217 -180.2190532897 1667.3182684287
-174.0701040205 -203.6610563748 1672.5301264656
-171.5430109639 -204.8723282138 1672.2426072303
-169.3643308308 -206.9881575796 1671.9648018452
-175.0567869650 -200.9310160771 1672.7054231542
-173.3247653385 -202.5895654324 1672.4852280837
-169.3570113526 -206.3076934698 1671.9830712375
-168.0145960064 -207.4527121311 1671.8163300910
-175.8845123607 -199.1663305779 1672.8378016838
-174.0966584209 -200.8820399346 1672.6104053240
-175.0409280955 -199.4566771727 1672.7450068374
-174.3672805963 -199.8023651334 1672.6677260616
-166.9354833575 -206.8375918815 1671.7251790745
-165.6974131598 -207.1878264304 1671.5911098989
-177.1393776545 -195.1297941091 1673.0765089075
-175.4061361150 -196.6749327795 1672.8593587357
-175.7167317342 -194.0637590726 1672.9634644459
-161.2427435368 -207.6206818747 1671.1318243956
-177.2059054987 -190.8192787632 1673.2035727385
-176.5832106608 -190.6541639828 1673.1456728468
-175.6084431602 -189.2442596208 1673.0871938012
-176.0453423626 -187.8796941308 1673.1691633055
-176.2042999113 -186.9143393322 1673.2120814645
-175.3024435067 -187.0350245583 1673.1181751262
-173.9136714651 -183.8704371913 1673.0671401308
-173.1222597741 -183.7633917299 1672.9906812699
-172.3635020486 -181.4443832530 1672.9792767739
-172.2942506919 -180.2540257197 1673.0055693704
-171.7759010023 -179.2941268270 1672.9803414497
-172.0092776755 -205.8876628496 1672.8642379507
-173.2332661812 -204.0640086321 1673.0350055299
-174.9077140347 -202.1236615007 1673.2537915604
-171.6091322352 -205.3801635429 1672.8379276928
-176.4089187296 -199.7875911004 1673.4658935205
-174.3957900612 -201.7303966699 1673.2132851705
-170.7607575905 -205.2161871432 1672.7577549325
-169.5300786542 -206.3593513814 1672.6045195063
-177.0158951594 -198.3653965073 1673.5644264248
-176.1194367506 -199.0524423213 1673.4567014200
-170.2477185453 -204.7095073158 1672.7201705681
-167.8992542775 -206.9950163130 1672.4249738222
-176.3363033862 -198.1434833903 1673.5026258369
-169.3490299930 -205.1697231368 1672.6182896143
-175.0463899679 -199.0035198768 1673.3510584213
-166.0471029781 -208.0859801893 1672.2111918232
-168.0568864311 -205.8029296303 1672.4725662496
-175.9350428741 -197.5225690870 1673.4792376045
-177.3300443948 -195.8678081454 1673.6625333051
-166.0370673320 -207.0652452205 1672.2374900527
-166.8172869204 -206.0387738962 1672.3427070274
-175.2543360291 -197.1872409735 1673.4203590421
-164.2933493504 -207.7017296314 1672.0466702621
-163.0615553422 -208.7314788731 1671.8963568614
-176.2458468941 -194.6847357355 1673.5861105613
-164.1715351711 -206.7952291384 1672.0587723596
-177.5234945227 -192.5771342870 1673.7698202574
-176.1799219814 -193.7211180046 1673.6053107248
-177.3480212205 -191.9545810251 1673.7689802380
-162.5910247020 -206.8067018493 1671.9009348689
-176.5041068629 -192.2442646116 1673.6771193757
-175.9910678177 -191.7375847842 1673.6395350113
