157.5611645171 -232.5193511154 1563.8998073467
157.0355440632 -233.3399990029 1563.8464859677
156.6679661048 -233.7922596350 1563.8080873199
156.6417029949 -232.0330437487 1563.7889975353
155.2445503936 -233.8738270399 1563.6441563562
155.3827084206 -233.1472484547 1563.6535104479
155.7105174421 -231.9786051630 1563.6807718171
155.1135195522 -232.1565478419 1563.6133286132
193.9332238989 -225.5744450026 1568.5911534487
168.0686909697 -221.3160974907 1565.5817027064
167.1517535778 -222.8407798251 1565.4939487185
166.7298491142 -223.6190296845 1565.4544378795
166.0471377012 -224.1963675293 1565.3827958486
164.0838723123 -228.1512515955 1565.2027062739
164.9936580267 -225.8365174327 1565.2807134545
165.5863746511 -224.2582080371 1565.3307401543
166.4010396386 -222.1644013044 1565.4003531906
167.2157046260 -220.0705945718 1565.4699662270
165.5255238023 -223.7945435000 1565.3185334646
163.6405128164 -226.5593459697 1565.1339550130
163.7893327148 -226.0120312482 1565.1448090396
161.6041189629 -230.4824126514 1564.9451331282
161.8480595883 -229.7141704997 1564.9643812991
162.7384160096 -227.0412316611 1565.0361160520
160.6897445403 -231.3961454953 1564.8507685468
161.0825050641 -230.0805886221 1564.8808707443
161.4849802345 -228.9441340868 1564.9141091555
160.2509737527 -231.2052411884 1564.7983746867
160.8753972861 -229.5532893161 1564.8511994346
160.3389428023 -230.1942619299 1564.7970220237
159.2414786030 -232.3399014625 1564.6956159611
160.6171533059 -228.7414278110 1564.8124576492
158.4150732299 -232.2426550478 1564.5998987167
158.0371532911 -232.5154152780 1564.5597115462
158.0080093513 -231.9781082642 1564.5503029047
158.1691068655 -230.9989463902 1564.5576825516
156.6717304650 -233.6700909676 1564.4164274843
156.6425865252 -233.1327839538 1564.4070188428
156.8036840394 -232.1536220797 1564.4143984898
155.7819112740 -233.7201295064 1564.3151141437
155.6310656366 -232.2554934185 1564.2812921229
153.8411753777 -234.7993684580 1564.1051078156
153.4975253170 -234.3875367210 1564.0611080997
153.4903736396 -233.5974848926 1564.0513612924
195.5823406769 -224.3225984980 1569.2205006356
194.4438637083 -226.3628711846 1569.1106218131
195.4799814439 -223.7534748876 1569.2028308012
194.3317610483 -225.6146440539 1569.0899767058
193.5833406567 -226.9502774331 1569.0176856147
194.3976090548 -224.8563977856 1569.0897040020
193.2396452322 -226.5384634314 1568.9738746338
193.6224208638 -225.0437648067 1569.0024456454
192.2743004662 -227.1677018664 1568.8693100479
192.5400484747 -226.1466877047 1568.8893188462
191.4357267501 -227.5023593588 1568.7762829483
191.5040372382 -226.1331572936 1568.7699687975
190.8945938051 -226.7423574537 1568.7061490184
189.7635042811 -226.9497627496 1568.5781458550
189.3369364776 -226.3270321785 1568.5226155854
188.4349772365 -226.8089801421 1568.4238197426
187.9206120910 -227.1972445953 1568.3686530782
187.7036877165 -226.4908496510 1568.3363795835
187.7061501980 -225.8798938541 1568.3303381365
187.2990692485 -225.6153703238 1568.2807584126
185.9339244784 -226.7701445458 1568.1356308225
185.9997724849 -226.0118982776 1568.1353581187
185.0344277189 -226.6411367125 1568.0307935328
185.0271467734 -225.8510773952 1568.0217768131
184.1885730573 -226.1857348875 1567.9287497134
167.1103405347 -223.3027337792 1565.9337750348
167.2517799747 -221.9653447632 1565.9362048999
166.0694043351 -224.5111149620 1565.8265078799
164.8870286954 -227.0568851608 1565.7168108600
164.3921504039 -227.8033566548 1565.6675947412
167.9003036148 -219.4496319767 1565.9847847097
164.7115405104 -226.4559485013 1565.6903970097
165.8427365336 -223.6256164973 1565.7912591124
164.1532766939 -227.3497104666 1565.6354121478
163.1952128733 -228.7690082189 1565.5398642817
163.6608608839 -227.4852261637 1565.5801545820
164.3703075675 -225.4331787028 1565.6405445819
162.4809477257 -229.4200405655 1565.4644161151
162.7466957343 -228.3990264038 1565.4844249134
162.9588016448 -227.7044062338 1565.5016402413
161.2498549511 -231.0702931623 1565.3398427310
162.0373555498 -227.8281471566 1565.3968938529
160.4966160956 -231.0049114272 1565.2524934731
161.0573423937 -229.5001936650 1565.3014368881
159.4556798960 -232.2132926100 1565.1452263183
158.8389555175 -232.0324334528 1565.0723898194
159.6215311531 -230.0121990410 1565.1415238352
158.9364962865 -231.2005419489 1565.0750014871
157.7248903659 -233.2090015864 1564.9563786487
156.8643673143 -233.7964078349 1564.8634424503
156.1623080753 -234.0155879050 1564.7849281096
156.2086692278 -232.8991345959 1564.7787048601
155.1677330282 -234.1075157787 1564.6714377053
154.9947073248 -232.8956233223 1564.6389824080
153.7758204587 -234.1140236425 1564.5113428498
150.1607025490 -235.2517561798 1564.1071427590
194.9442168414 -225.6145283421 1569.4093631475
194.8738983763 -224.3609653675 1569.3859920797
193.6773372174 -225.9398558491 1569.2659686814
193.9943999012 -224.5918617036 1569.2865053317
194.0589540985 -223.8335060095 1569.2848217476
193.2497740885 -225.3179653202 1569.2087060674
192.5352847609 -226.5813102116 1569.1409229750
192.0646855004 -226.4649901454 1569.0847827504
192.2024123144 -225.7383052634 1569.0919929489
191.3831868094 -227.0436841492 1569.0125385447
189.8637986991 -227.9586501075 1568.8469238442
189.0058182897 -227.9367612122 1568.7468759014
189.1966267303 -226.8835862925 1568.7563024346
188.7461184598 -227.1254270762 1568.7068396579
188.1693559462 -227.6620870856 1568.6462667640
187.6872841149 -227.9776326758 1568.5940264580
187.4806659116 -226.8398085019 1568.5562065491
186.5050496784 -227.9027653385 1568.4556258558
186.5595583807 -226.9653292195 1568.4506035477
185.5753237282 -227.2382595499 1568.3394454878
184.9253885979 -227.7432487472 1568.2699788114
184.3615257308 -227.2370970191 1568.1982673563
183.8378448438 -227.4472669907 1568.1399107970
183.5982360039 -226.9940937045 1568.1065520014
183.0329460610 -227.0988880577 1568.0420791889
182.7933372212 -226.6457147715 1568.0087203933
182.1233111009 -226.7925431189 1567.9325762689
150.7425838928 -235.6633601228 1564.3905283877
149.5287858954 -235.6621975920 1564.2493502562
148.8157236436 -236.3145964021 1564.1743285212
148.3881605146 -235.6927058732 1564.1170659072
165.0269421734 -226.1430378353 1574.9794804482
165.8109194786 -224.1228752117 1575.0330880531
166.2774195490 -222.8391391796 1575.0638651190
163.8769087240 -228.0041463269 1574.8856985902
163.4544725368 -228.7824047512 1574.8525501466
165.5841703881 -223.2374154945 1574.9973915840
163.9870684321 -226.7404523075 1574.8797701457
166.4951385872 -220.9226822343 1575.0601314045
164.8980366312 -224.4257190473 1574.9425099663
163.3009346752 -227.9287558604 1574.8248885280
165.8090048303 -222.1109857871 1575.0052497868
163.9896688099 -226.1295212142 1574.8716469712
166.4977389651 -220.3117511410 1575.0520082300
164.3609257098 -225.0667131597 1574.8955748753
162.2241124546 -229.8216751783 1574.7391415206
162.4366307371 -229.1270804195 1574.7516541551
164.9447008923 -223.3093103463 1574.9320154140
162.5539058492 -228.6534136382 1574.7573176280
162.6711809612 -228.1797468569 1574.7629811008
165.1792511164 -222.3619767836 1574.9433423596
164.7691310890 -222.7084002593 1574.9055394843
161.7433815762 -229.5253567344 1574.6851806201
165.8388379056 -220.0254537033 1574.9796945744
162.8130883928 -226.8424101784 1574.7593357102
161.3747250541 -229.9772336957 1574.6531295415
165.4701813835 -220.4773306646 1574.9476434958
162.4444318707 -227.2942871397 1574.7272846316
160.7520867442 -231.0182519302 1574.6028140316
160.4883891745 -231.4282970587 1574.5810808576
160.2246916047 -231.8383421872 1574.5593476835
159.8974985880 -232.3956726341 1574.5330484016
160.5130214939 -230.5646271616 1574.5717719942
159.4044515499 -232.5311891387 1574.4837419328
159.7757084498 -231.4683810841 1574.5076698369
159.3338406989 -231.8884472190 1574.4675839077
159.8638362163 -230.4574258686 1574.5029270814
158.6405915380 -232.2867235338 1574.4011103727
159.2658302258 -230.6347742060 1574.4433027081
158.6457922938 -231.0648613472 1574.3848640237
157.7497406322 -232.3368285656 1574.3093465969
157.1711662055 -232.8723691924 1574.2566597093
155.9161738038 -234.7753095167 1574.1525599467
156.0554808575 -234.0489039315 1574.1570377306
156.3217788051 -233.0279277097 1574.1706477302
155.8604794904 -233.0898015551 1574.1236243154
155.1354826060 -233.5617205291 1574.0548677264
154.2076832210 -234.9073304066 1573.9770672458
153.7560996882 -235.1483003968 1573.9335125737
153.8539432366 -234.3164413260 1573.9322385609
152.9825238945 -234.7247386472 1573.8474122708
165.3145970122 -225.1144243464 1575.2595764027
164.6271484508 -226.3020562439 1575.2066442809
165.3814891816 -224.3562821224 1575.2551896712
163.3795632134 -228.3828748134 1575.1094770170
162.8926130617 -229.3079416408 1575.0732268538
164.6972768471 -224.9329944086 1575.1935223279
164.8278249592 -224.0276295718 1575.1934840862
163.2842573982 -226.5918471304 1575.0731121289
161.2186754873 -230.7656624342 1574.9230509849
160.6680693928 -231.8379518744 1574.8824523317
161.8807685309 -228.4298026205 1574.9563384188
160.8973376459 -230.1008335072 1574.8802016035
160.4486879190 -229.7304498058 1574.8286552423
158.4054033979 -233.6515510348 1574.6771318544
159.1629803556 -231.0948573020 1574.7169420233
158.1286603361 -232.4812939585 1574.6313579854
157.7594914882 -232.9328127922 1574.6001683132
157.2948387263 -233.6051655449 1574.5624559061
155.5890731806 -235.1364976447 1574.4101057922
155.4364057774 -234.2827149541 1574.3817641245
154.1411676325 -235.4680196820 1574.2664144166
154.4531529912 -233.9418842386 1574.2757851560
153.3105822494 -235.9809716572 1574.1887771158
153.3679438374 -235.0437266649 1574.1807538955
152.3654517893 -236.3565520150 1574.0973441026
152.2160206129 -234.8918497131 1574.0602672134
151.0130301552 -236.4672401332 1573.9601754618
150.2811649130 -236.1484385780 1573.8803256745
150.3798850538 -235.3166850476 1573.8781131879
149.7593286619 -235.7461747210 1573.8207943345
194.4560016998 -228.8057224051 1578.3583145319
160.0786438100 -230.8995946058 1574.8104756122
160.2183929209 -230.1732721034 1574.8146455477
156.6593092359 -233.7845218272 1574.4958217932
154.6232653681 -234.4727276840 1574.2937548382
195.4441324162 -228.9959486644 1578.8149282716
194.0040525975 -230.1188899014 1578.6788302893
193.0887100895 -231.0326716157 1578.5949015057
193.9164986436 -228.5070061805 1578.6489029660
164.5510636083 -225.4519740877 1575.5391831129
163.6649057516 -226.9030503757 1575.4652301038
163.8773557730 -226.2084486277 1575.4784915361
164.0898057943 -225.5138468798 1575.4917529685
164.3022558156 -224.8192451319 1575.5050144008
162.9497299508 -227.5540700897 1575.3988437417
162.0830285283 -229.3633427601 1575.3315412489
164.5904686478 -223.5455169058 1575.5187338985
163.5650684836 -225.7230064024 1575.4395837696
162.5396683194 -227.9004958990 1575.3604336408
164.0217082746 -224.2601595413 1575.4684761615
162.7423901236 -227.0267959599 1575.3703698150
160.6941448922 -230.7708370143 1575.2044633100
159.8494550010 -232.3273681282 1575.1362050863
158.5680739240 -233.0820925389 1575.0119547400
159.5105381574 -230.6936933904 1575.0797152982
157.7894186265 -233.8803989835 1574.9408293234
158.6366636148 -231.7129299307 1575.0014813000
158.5757392152 -231.2492787223 1574.9891359984
156.7082042568 -234.3723613940 1574.8341213986
156.1931951632 -234.7606191078 1574.7852774578
157.3578376350 -231.8567164025 1574.8696247065
156.7476092963 -232.4659042121 1574.8136721842
155.0925243592 -234.8943851359 1574.6719190167
155.3075294776 -233.5888454491 1574.6775742018
153.7333175455 -234.2163240169 1574.5210666053
153.0058584306 -235.2991834786 1574.4589612323
152.4370980574 -236.0138261142 1574.4087034953
152.8302583517 -234.6982659836 1574.4328568327
152.2614979785 -235.4129086191 1574.3825990958
151.7879568503 -235.9066211589 1574.3394499404
151.3778952189 -236.2530469682 1574.3010398395
151.9614940033 -234.4956266461 1574.3394103402
151.0973476779 -235.6939613776 1574.2645016002
150.5971769955 -235.0394414049 1574.2037704232
198.0413127829 -227.6131339382 1579.2250196880
198.1168509320 -227.0339781073 1579.2254698754
198.1923890811 -226.4548222765 1579.2259200627
194.5666447179 -229.4268011889 1578.8833085979
194.4957512848 -228.7840805060 1578.8675480650
194.0443383124 -229.0252300727 1578.8232259763
193.4660854936 -229.5610030558 1578.7693833690
193.3634820989 -228.9919382270 1578.7512427065
192.7656375443 -229.1695229417 1578.6907098976
161.6687278890 -229.7453542264 1575.4301061855
160.9757534496 -230.1439065034 1575.3624329876
160.2827790102 -230.5424587804 1575.2947597898
159.4606423662 -231.8465727307 1575.2252212460
159.0749716751 -231.3294723322 1575.1780042439
158.2528350312 -232.6335862825 1575.1084657001
157.3719231801 -232.8631354274 1575.0188565516
157.3425355765 -232.3258530247 1575.0088212492
156.5740229880 -233.3035611325 1574.9406978640
155.9859743013 -233.6602399814 1574.8835101559
197.5583840589 -227.8857917679 1579.5211417751
197.6347513948 -227.3067449670 1579.5204183305
197.4915629091 -226.6320794619 1579.4956189984
196.2155932480 -228.1757154313 1579.3868917092
195.7478439691 -227.4471727488 1579.3278016014
194.5800613416 -228.3381474890 1579.2205404601
194.8696206826 -227.0646979320 1579.2314980515
194.0391267888 -227.5777319051 1579.1534250564
193.3136378666 -228.0490243514 1579.0855669496
192.5563292467 -228.5939312260 1579.0155192503
193.1099920476 -226.9106680006 1579.0476396922
192.2604063967 -227.0654984577 1578.9622744752
191.3949107432 -228.2630665615 1578.8907606281
191.5890109913 -227.2104602894 1578.8951494423
190.7489712190 -227.5443925046 1578.8134303362
190.7107877048 -226.8279854725 1578.7988458924
190.2175825448 -226.9630786787 1578.7499610436
176.2646452717 -258.2370750570 1577.7748785949
175.3259643443 -259.4027702594 1577.6953394520
189.2852657415 -226.9069344765 1578.6529244198
175.5200645924 -258.3501639873 1577.6997282662
174.6100213006 -260.0531644637 1577.6311274561
188.6775097314 -226.9046674515 1578.5901785717
188.2829457264 -226.2079976705 1578.5391137597
173.3626895827 -260.1222448422 1577.5034461675
172.9203958774 -260.5419271361 1577.4640431330
172.2171807743 -260.7605033961 1577.3947285077
171.6094247642 -260.7582363711 1577.3319826596
197.4427170773 -227.5058729511 1580.3467990820
197.7298441795 -226.2318694554 1580.3573619940
197.0686134803 -226.5572157633 1580.2939954232
197.2705912484 -225.6833215243 1580.3017595217
196.0054424462 -228.0194285843 1580.2061653224
195.4907040798 -228.4082361494 1580.1588658413
196.5579055166 -225.7241793982 1580.2288252761
196.2213385832 -226.1027724948 1580.1997593564
194.7146601479 -228.5964454746 1580.0815986524
194.8532797158 -227.8699026868 1580.0850298076
195.1502947842 -226.7749812709 1580.0992933211
194.1089148839 -227.9844362864 1580.0099290904
193.8595124859 -227.3519981612 1579.9747266511
193.1863786191 -228.1091843545 1579.9165948118
193.2200729206 -227.4245866637 1579.9098259505
192.2321632542 -228.3076081482 1579.8210940615
191.5194775225 -228.3484660221 1579.7481598160
191.4799256575 -227.6321377028 1579.7333574098
190.9236202248 -227.9155389137 1579.6801908555
190.3673147921 -228.1989401246 1579.6270243012
190.1278003603 -227.7455840792 1579.5955224635
189.5299278613 -227.9235789359 1579.5364888360
176.3970196930 -257.4562432218 1578.6232330332
188.9221673961 -227.9224917128 1579.4737546070
176.4208260281 -256.5925634512 1578.6127635703
175.7357889938 -257.7815895298 1578.5598664624
175.7694832952 -257.0969918390 1578.5530976011
188.6846681656 -226.8582137023 1579.4333174363
175.7616105303 -256.3069877941 1578.5404616665
174.2529168936 -259.4115827390 1578.4312362955
174.5281408281 -258.5694191285 1578.4470339389
174.9617602631 -257.3588768899 1578.4736639405
173.6649323608 -259.7686596755 1578.3759032695
187.4889231676 -227.2142034158 1579.3152501813
173.4155299628 -259.1362215503 1578.3407008303
173.5541495307 -258.4096787625 1578.3441319855
172.4810905304 -259.6928095037 1578.2526012831
192.0972916989 -241.4522085267 1583.4315375726
192.1385514209 -240.3355837916 1583.4213929660
191.1861680419 -241.7594740445 1583.3381809715
192.0856654909 -239.4403466401 1583.4040735529
190.8088860863 -241.4231480744 1583.2934816536
191.4887103476 -239.6205916983 1583.3426330195
192.4823534485 -237.0800767103 1583.4157004075
191.6766519774 -238.5668783791 1583.3489825871
191.0796968341 -238.7471234373 1583.2875420537
191.2468337659 -237.9462534096 1583.2949639017
191.3928163258 -236.7872885213 1583.2954579844
191.2038256740 -236.0081873842 1583.2651082798
191.5278720257 -234.8383380507 1583.2844881388
191.3702632579 -233.9854410524 1583.2565300363
191.3071498159 -233.5220946226 1583.2437467862
162.5627409906 -230.3555293861 1580.1308893484
163.3367109038 -228.3315854264 1580.1872155210
162.7714873184 -229.0489727755 1580.1361666356
162.1018905691 -230.4196384299 1580.0824791066
164.5810594024 -224.5897653970 1580.2714156809
163.9114626532 -225.9604310514 1580.2177281519
163.0849564841 -227.7000760116 1580.1520826119
162.0387771272 -229.9562920001 1580.0696958565
163.4717666037 -226.3826349557 1580.1762456753
162.3628234789 -228.7864426666 1580.0890757155
161.1597347022 -231.4116379610 1579.9947309490
163.6389035355 -225.5817649281 1580.1836675233
162.4358147588 -228.2069602225 1580.0893227568
160.7619977226 -231.9390934344 1579.9591039572
163.6907404434 -224.6441876233 1580.1769867994
160.2489607192 -232.3298416309 1579.9093743936
164.0775505630 -223.3267465675 1580.2011498628
160.3847157671 -231.6027674644 1579.9144046393
164.2133056109 -222.5996724010 1580.2061801086
161.5352682878 -228.6932731706 1579.9994300384
159.1185135484 -233.7646163290 1579.8072766227
159.8297196937 -231.8882640917 1579.8588195909
160.5409258389 -230.0119118543 1579.9103625590
159.6826881119 -231.2144145237 1579.8343253711
159.3163330163 -231.6680741360 1579.8010899815
158.8558322688 -232.3431213318 1579.7606797853
158.4267134052 -232.9443726665 1579.7226611914
157.8406851219 -233.9146033071 1579.6726845864
157.2546568385 -234.8848339476 1579.6227079814
158.0388542637 -232.4289992661 1579.6744979909
157.5783535162 -233.1040464620 1579.6340877947
157.1806165366 -233.6315019355 1579.5984608029
156.8142614411 -234.0851615478 1579.5652254134
156.2909969256 -234.9078004660 1579.5200320128
155.8618780621 -235.5090518007 1579.4820134189
155.2335410348 -235.7630927200 1579.4181812833
154.8978684752 -234.9210801670 1579.3713374046
154.9708597551 -234.3415977228 1579.3715844459
153.9349079103 -236.1659229895 1579.2846615274
154.3005636579 -234.4903870730 1579.3018968256
153.6725763046 -235.3553661444 1579.2460647357
153.0132070673 -236.2941410770 1579.1878410437
153.5883084907 -234.5339248541 1579.2263537203
153.1799943252 -234.8823328973 1579.1872628460
152.7716801596 -235.2307409405 1579.1481719716
152.3947478780 -235.5053531225 1579.1114726994
151.9864337125 -235.8537611657 1579.0723818250
151.6095014309 -236.1283733477 1579.0356825528
151.2325691493 -236.4029855297 1578.9989832806
150.9808147296 -235.7714761149 1578.9638503716
150.6031831001 -234.8242119928 1578.9111510080
149.7763272570 -235.9529188009 1578.8375054223
149.2319083696 -236.4174628585 1578.7853842564
149.5139956513 -235.1423619559 1578.7989086306
148.9068129960 -235.7544977358 1578.7420042603
147.5034570336 -236.1996681586 1578.5978458152
147.3670026377 -235.7048660209 1578.5768154780
146.8853475183 -236.0218183561 1578.5294775166
146.0056057453 -236.2552880127 1578.4385125177
145.4086506019 -236.4355330709 1578.3770719843
145.4291056259 -235.5717516273 1578.3679996582
144.9788323904 -235.8149081014 1578.3230532990
144.4030316191 -236.3532480202 1578.2685405309
144.1615047114 -235.2898478836 1578.2288714588
143.5539723821 -235.2910455114 1578.1639670428
164.4365092076 -226.1881682404 1580.9268384019
162.8056338582 -229.4153712924 1580.7965090249
162.1679536282 -230.7125364445 1580.7460388441
164.6447382845 -224.8815253371 1580.9310846307
163.9757063500 -226.2525007564 1580.8782720981
163.3066744155 -227.6234761758 1580.8254595656
164.8949652058 -223.6801123580 1580.9412963575
162.3655365654 -229.2268533497 1580.7466619267
160.9440637226 -232.3692751814 1580.6376329526
163.4208483790 -226.5382640740 1580.8226787392
161.9053204227 -229.9021167073 1580.7066227100
164.3821050790 -224.0711055998 1580.8916684965
161.1315872348 -231.3154827367 1580.6431599760
163.6083718912 -225.4844716293 1580.8282057625
161.8733820033 -229.3649961329 1580.6957532712
164.3501666597 -223.5339850254 1580.8807990578
162.6151767718 -227.4145095290 1580.7483465664
160.6293732478 -231.8855161701 1580.5971552613
163.1061579042 -226.0545050626 1580.7822010478
160.2318605141 -232.4131589933 1580.5618007480
162.7086451705 -226.5821478858 1580.7468465346
161.2558206232 -229.7983799848 1580.6354752088
159.6462375534 -233.3836634196 1580.5123921244
160.8269561850 -230.3998330752 1580.5977783438
162.0076748167 -227.4160027308 1580.6831645633
159.5409495853 -232.8151231881 1580.4932148359
164.0555950348 -222.1864447137 1580.8305134849
161.0665369665 -229.0193799046 1580.6043669244
159.9585811689 -231.4236990646 1580.5187614676
160.2614520742 -230.5065562013 1580.5385618387
160.5643229795 -229.5894133380 1580.5583622097
159.0067971789 -232.8480360470 1580.4363406825
159.7799436519 -230.8237391759 1580.4912763294
159.0056237493 -231.6261743638 1580.4192865084
158.3886490840 -232.6704890573 1580.3675355331
157.7089710097 -233.8624242852 1580.3110998542
157.0292929354 -235.0543595131 1580.2546641754
156.1709773442 -235.6463348523 1580.1707433584
157.1635857488 -233.1053661110 1580.2420754675
156.5152593790 -234.2234910717 1580.1879821404
156.0236915318 -234.9725646965 1580.1456005720
155.4481279960 -235.5111784727 1580.0912880076
154.8926833101 -235.1860109486 1580.0271675616
155.0068572735 -234.1007988468 1580.0243867353
153.9089609008 -236.0732273566 1579.9338773377
153.9503720303 -235.5675264393 1579.9313157487
153.3641623547 -235.9271000240 1579.8733800380
153.7504422338 -234.6094861676 1579.8965843180
153.0914697242 -235.5485709369 1579.8388678447
152.5265523282 -236.2662249046 1579.7881784265
152.1805101489 -235.8562761603 1579.7453583835
151.7409995710 -236.2786890593 1579.7040383722
151.3009022782 -236.0901711166 1579.6541912740
150.9240951092 -236.3649634812 1579.6175559662
150.4526461119 -236.2502558057 1579.5653665162
150.0439005236 -235.9879275959 1579.5178617697
150.0119621043 -235.4508070215 1579.5069923309
149.3109917504 -236.2846618664 1579.4433103596
149.4044601491 -235.4523002232 1579.4418103278
148.8916000223 -235.8432934651 1579.3921824668
148.2734519274 -235.6657464754 1579.3233773174
147.7185939564 -235.9515097929 1579.2677839585
146.7969882413 -236.0801748249 1579.1706513510
163.5617519551 -227.9132807385 1581.4558185164
164.1767682230 -226.2574581280 1581.4963976315
162.3090451129 -230.2559607104 1581.3572687538
164.7809915374 -224.4226104432 1581.5330534155
164.1443893626 -225.7203829048 1581.4846276386
163.5077871877 -227.0181553663 1581.4362018616
162.8711850128 -228.3159278279 1581.3877760846
162.3694492363 -228.8864507566 1581.3426292572
161.1070378401 -231.6610207542 1581.2497010342
163.5789842646 -225.8276704870 1581.4254856959
164.6320669875 -223.1380896014 1581.4972165232
163.2132032858 -226.2818589829 1581.3931626887
164.6309785881 -222.5271745013 1581.4876716525
162.7114675094 -226.8523819116 1581.3480158613
160.5103422810 -231.8421482132 1581.1883339693
163.0340766742 -225.6820931180 1581.3646455446
163.1376526115 -225.0286834619 1581.3656993719
160.4671704671 -231.1260479155 1581.1726406454
160.6754107411 -230.4301437034 1581.1842931705
160.8836510151 -229.7342394914 1581.1959456956
163.9814066610 -222.4240916882 1581.4162328034
161.0293103670 -229.1860150330 1581.2031479762
163.2401401494 -223.7643587058 1581.3572083285
164.1054801059 -221.5178170809 1581.4155884219
163.4062970089 -222.9632692961 1581.3627124004
160.2038770263 -230.3159116553 1581.1318265948
159.5046939293 -231.7613638704 1581.0789505732
158.2411941337 -233.9250187679 1580.9764774796
158.8562104016 -232.2691961575 1581.0170565946
158.2401057343 -233.3141036678 1580.9669326090
158.3954696403 -232.3339891837 1580.9685133499
157.6229126677 -233.7480960781 1580.9072637527
156.7877747729 -235.3098827260 1580.8415639110
157.7156956515 -232.9156613476 1580.9043942490
157.0995909842 -233.9605688579 1580.8542702634
156.5147767780 -234.9316364914 1580.8063714000
156.1177053382 -235.4596648642 1580.7718232705
157.2020785222 -232.6962441018 1580.8457792200
156.8050070824 -233.2242724745 1580.8112310905
156.4392261037 -233.6784609704 1580.7789080832
156.0108642028 -234.2803292200 1580.7421348314
155.4864541200 -233.8818868997 1580.6795964714
153.9089613143 -236.1730254651 1580.5453272842
153.8754940545 -235.0250351418 1580.5240124206
152.7479490566 -237.0723556065 1580.4343631472
153.1428436977 -235.3224970335 1580.4498215355
152.5785269991 -236.0406997158 1580.4002244635
151.9516293783 -236.9065821518 1580.3461771469
151.3031458506 -237.4144144388 1580.2842831683
151.5005931711 -236.5394851524 1580.2920123625
150.7485337061 -237.7007270955 1580.2290645567
150.9459810266 -236.8257978090 1580.2367937508
150.1097547325 -237.7766693568 1580.1615490384
150.5575257415 -236.3110210560 1580.1870792110
149.8993376597 -237.2507433687 1580.1308067721
149.3976018832 -237.8212662974 1580.0856599447
149.9079538145 -236.2079382430 1580.1156403618
149.2497657326 -237.1476605557 1580.0593679229
148.5279083293 -237.6241475219 1579.9891003688
148.9756793384 -236.1584992210 1580.0146305413
148.4739435619 -236.7290221497 1579.9694837139
147.9722077854 -237.2995450785 1579.9243368865
147.2816408432 -237.7021921679 1579.8562944546
146.8403091901 -236.9032051428 1579.7965081306
146.1713281548 -237.6639023811 1579.7363123607
146.0019060972 -236.6322464905 1579.7021736770
145.2908416474 -237.2877585311 1579.6358294538
144.8193079326 -237.1735264830 1579.5833628781
163.6595180029 -227.1534814675 1581.8981622038
162.0658212706 -230.3099804421 1581.7741155493
164.5319213576 -224.4741909636 1581.9510512330
163.6469026031 -226.3635591546 1581.8843191699
161.5647005261 -230.8810030655 1581.7284581217
164.0308006132 -225.0452135870 1581.9053938054
162.5838856363 -228.2642553300 1581.7983472827
163.6030707465 -225.6475075946 1581.8682364437
162.0000734856 -229.2359031021 1581.7499914600
164.4661735727 -223.4001136236 1581.9269271437
162.7070940278 -227.3578628956 1581.7974836991
160.9480144830 -231.3156121675 1581.6680402544
161.4365198276 -229.9546672312 1581.6998546480
163.9026199147 -224.1188777528 1581.8767903317
161.9765001217 -228.2669678992 1581.7321277445
164.4426002087 -222.4311784207 1581.9090634282
161.3395555859 -228.9544606441 1581.6734908666
163.8056556729 -223.1186711656 1581.8504265502
163.3888837704 -223.8999780632 1581.8172898701
162.7535966703 -225.1983802311 1581.7684753446
159.6522094831 -232.3325718774 1581.5427251354
162.1183095702 -226.4967823989 1581.7196608191
158.9232730126 -233.8525863039 1581.4871915333
161.3893730996 -228.0167968254 1581.6641272170
159.2556960732 -232.8609951321 1581.5078074660
162.8768050618 -224.2919877966 1581.7676117610
159.5881191338 -231.8694039603 1581.5284233986
163.2092281224 -223.3003966248 1581.7882276936
159.7020269969 -231.3949080587 1581.5333614859
163.3433944781 -222.5730170803 1581.7913847915
159.8361933526 -230.6675285142 1581.5365185838
158.5141442029 -233.5910872457 1581.4384308299
158.4812703104 -233.0540485757 1581.4263687853
159.0836835181 -231.2186077379 1581.4631212661
157.2605136240 -234.7131890927 1581.3193760847
157.5600627921 -233.1845592509 1581.3279299727
156.8201683575 -234.5255607874 1581.2683756890
157.6832711836 -232.2781668164 1581.3270663890
156.8497273786 -233.8407806116 1581.2607930288
156.1410494007 -235.1079113952 1581.2034784373
156.3266907058 -234.0537774550 1581.2070942381
154.9810681922 -236.0084009836 1581.0911427687
153.9256943182 -236.8662912032 1580.9895468582
155.0697452556 -233.9540604562 1581.0683947880
153.3697837530 -236.5422493766 1580.9237860229
153.2947354396 -235.9000685695 1580.9054636045
152.3878007567 -237.4314109804 1580.8306901783
152.7092658532 -236.2608069186 1580.8472854294
151.6538919792 -237.1186971383 1580.7456895189
151.9753570757 -235.9480930765 1580.7622847700
151.0684223929 -237.4794354874 1580.6875113438
150.4517363497 -237.9140445895 1580.6270934765
150.9385842587 -235.9421902303 1580.6490855177
150.2501647735 -236.9564373710 1580.5899899369
149.5929617450 -237.8968137589 1580.5331340483
150.0392926687 -236.4307266855 1580.5586880682
149.6006048379 -236.8540078031 1580.5175100250
149.0370511798 -237.5727719323 1580.4673732130
149.3897327331 -236.3282971176 1580.4862081563
148.7637461615 -237.1948027525 1580.4315919599
148.1377595898 -238.0613083874 1580.3769757635
148.1454026826 -237.0185024317 1580.3613517402
147.4224518693 -236.8848014795 1580.2803717623
146.9728060743 -237.1290697071 1580.2351730376
146.2608132251 -237.1743816449 1580.1582137412
145.7065600955 -237.4612492412 1580.1022752584
145.0476996314 -237.7907162061 1580.0355970173
144.4403141168 -237.7934287753 1579.9693774791
162.4016436104 -229.8967462013 1582.3915520801
163.0155130029 -228.2404961254 1582.4320520406
163.2545191461 -227.4705869133 1582.4458140535
161.8785511004 -230.1095957658 1582.3378132179
164.3464008250 -224.2745184132 1582.5138380397
160.8883489937 -232.0412790577 1582.2606136156
163.3561987183 -226.2062017050 1582.4366384373
161.3772639698 -230.6804759364 1582.2922009268
163.8451136944 -224.8453985837 1582.4682257486
161.7615604438 -229.3622427280 1582.3130404657
164.2294101684 -223.5271653754 1582.4890652874
160.9994617907 -230.3450015047 1582.2455395906
163.4673115152 -224.5099241521 1582.4215644124
160.3325484147 -231.7170827132 1582.1946848968
162.8003981393 -225.8820053605 1582.3707097185
159.5094420182 -233.4584726148 1582.1326893914
164.4451414674 -221.7883179095 1582.4847390349
161.1541853463 -229.3647851638 1582.2467187078
163.6220350709 -223.5297078112 1582.4227435296
160.3310789498 -231.1061750655 1582.1847232025
162.7989286744 -225.2710977128 1582.3607480242
161.8196292573 -227.3817963077 1582.2876117074
162.8286978136 -224.5863283265 1582.3530144922
159.0691626309 -233.2707216604 1582.0815717306
163.6299988307 -222.4869078188 1582.4068834265
159.8079864398 -231.3190246300 1582.1309843403
164.3688226397 -220.5352107884 1582.4562960362
160.5468102487 -229.3673275996 1582.1803969500
158.5991141043 -233.7677400924 1582.0381876018
160.0564258077 -230.1172230732 1582.1388479444
164.5438821097 -219.3021174059 1582.4556400302
164.0956389625 -220.1571664438 1582.4203824724
163.5536800030 -221.2338006977 1582.3784404278
159.2630885504 -231.1738435885 1582.0691189070
158.7211295909 -232.2504778424 1582.0271768624
157.8246432965 -233.9605759183 1581.9566617469
157.3124534762 -234.3524407859 1581.9069861703
156.9237486074 -233.8379510512 1581.8562615485
156.5975209468 -233.1757378392 1581.8099932514
163.0217707035 -217.7812043761 1582.2649313998
155.0653598806 -236.1840553850 1581.6908516043
155.5855134608 -234.7493905251 1581.7246670779
156.1056670409 -233.3147256651 1581.7584825515
155.4794254938 -234.1810527903 1581.7039576112
154.3955075748 -236.3343212980 1581.6200735219
153.9566976524 -236.7574779913 1581.5789175554
154.9454302942 -234.2148870518 1581.6461554635
154.2988528327 -235.3340912186 1581.5934656464
153.9334228081 -235.7885397376 1581.5608292900
153.4212329878 -236.1804046052 1581.5111537134
152.9090431675 -236.5722694727 1581.4614781367
152.1345723597 -236.7651052987 1581.3799522818
151.2039085314 -237.3272498179 1581.2872856155
150.6917187110 -237.7191146855 1581.2376100388
150.0015304908 -238.1222576402 1581.1686670796
151.0839789450 -235.3580814847 1581.2425894746
150.6030277287 -235.6760846137 1581.1951420602
150.1533151166 -235.9202260039 1581.1499228082
149.6411252963 -236.3120908715 1581.1002472315
148.6261788804 -236.6639282619 1580.9949976695
148.4888523094 -236.1694522658 1580.9720600405
147.3315544925 -238.2914289478 1580.8796563410
147.3722263213 -237.7856748645 1580.8759860946
147.5066139625 -237.0583355653 1580.8790003350
147.7034788120 -236.1832727888 1580.8864709000
146.7960898279 -237.7143555617 1580.8118924990
147.1179090937 -236.5438458306 1580.8282757133
146.2105201097 -238.0749286035 1580.7536973122
146.5635779796 -236.8305571338 1580.7723086888
146.0608213841 -236.7905296567 1580.7167347034
145.4549157514 -237.4039797402 1580.6603746398
144.9005846373 -237.6906910433 1580.6044076153
175.6237419526 -249.1663279792 1585.2332947425
175.8831951191 -248.1435830193 1585.2462976614
175.5177242364 -248.5979584190 1585.2131054782
176.1317669578 -246.9418176604 1585.2554081417
174.5164479766 -250.3504337793 1585.1298257542
174.7962660177 -249.0748124024 1585.1412459896
174.0558407054 -250.4154600179 1585.0803367451
173.4200353283 -251.7135599785 1585.0302492044
172.7842299512 -253.0116599391 1584.9801616637
175.2526799457 -247.1770345186 1585.1626323172
175.2934096950 -246.6712816845 1585.1594669503
174.0326802687 -249.4465020047 1585.0631843075
174.2092761556 -248.8243454978 1585.0731503996
174.3233796376 -248.3499010269 1585.0784969815
171.9690331251 -253.7100819764 1584.9013729099
174.4374831196 -247.8754565559 1585.0838435633
172.0831366071 -253.2356375054 1584.9067194918
174.5515866017 -247.4010120849 1585.0891901452
171.5614347121 -254.0592929951 1584.8619785330
173.7690337591 -248.6364953194 1585.0220787070
170.7897631973 -255.4737966285 1584.7987595333
173.2582131918 -249.6391712080 1584.9812301868
172.7473926246 -250.6418470967 1584.9403816665
172.2365720574 -251.6445229853 1584.8995331463
174.7050220519 -245.8098975648 1585.0820037997
171.5070280729 -253.1641909999 1584.8425163403
170.9431986476 -253.8826821084 1584.7915731878
168.9638065646 -258.3565908422 1584.6421661776
171.4322565591 -252.5219654217 1584.8246368310
169.9419223877 -255.6351574687 1584.7082934639
168.4624695442 -258.9273699148 1584.5958425353
169.4514666951 -256.3849569404 1584.6658622602
173.9509198497 -245.7496903511 1584.9984669955
170.4404638461 -253.8425439659 1584.7358819851
168.8672723951 -257.3563244660 1584.6165017912
167.9190049934 -259.3929846064 1584.5433166994
168.3346891722 -258.0009595565 1584.5678683938
168.4786410757 -256.8417418525 1584.5661571703
168.9989451897 -255.4071691478 1584.6015305686
166.6404053341 -258.9345984521 1584.3963038154
161.8843818529 -230.6614229661 1583.4487339921
163.3515555876 -226.5792729059 1583.5479249216
162.5377565425 -227.8886121583 1583.4785037283
161.5894891408 -229.9252722987 1583.4053186366
160.6412217391 -231.9619324391 1583.3321335448
160.7444438933 -231.3084675691 1583.3335876882
163.2128938878 -225.4738421486 1583.5160583416
162.0146568664 -228.1013504328 1583.4243952090
161.5866935788 -228.7034378685 1583.3865835155
160.1697331401 -231.8479382786 1583.2787520972
162.6381831346 -226.0133128581 1583.4612227506
160.7525296591 -230.2656535380 1583.3187450056
159.4918002328 -233.0408738582 1583.2224623628
161.9072413691 -226.9220636576 1583.3948383841
160.1669375781 -230.6261038484 1583.2600169761
158.7064518281 -233.0545226624 1583.1366158036
158.7987926544 -232.2220373934 1583.1341775084
159.1003733512 -231.3044568145 1583.1533826209
157.3804344348 -234.7556205884 1583.0169785295
157.9319847512 -233.2471918657 1583.0546616829
158.4835350677 -231.7387631430 1583.0923448362
156.3043866611 -235.8658703705 1582.9158192963
157.3762410916 -232.9228689431 1582.9888758479
156.7499192614 -233.7890720876 1582.9333131852
156.0923512286 -234.7291312501 1582.8754407675
156.7063939500 -233.0729904915 1582.9177434311
155.5910142082 -235.2999103227 1582.8291171252
156.1425645247 -233.7914816000 1582.8668002786
155.0271847828 -236.0184014313 1582.7781739728
155.6099813018 -234.4361166906 1582.8181668813
154.1807417543 -236.7906794866 1582.6970754639
155.0135078929 -234.6175466021 1582.7555464132
153.3451800535 -237.7419779409 1582.6198693935
153.5000132848 -236.7617806359 1582.6220506085
153.2268832284 -236.3836707666 1582.5864201300
152.3084642481 -237.7355576739 1582.5061772328
153.2974613991 -235.1931446995 1582.5761969577
152.9319905163 -235.6475200992 1582.5430047744
152.5352734311 -236.1757515169 1582.5075028361
151.9605626779 -236.7152222265 1582.4526672451
151.6547886380 -235.8000511600 1582.4053594510
150.5285275684 -237.8479505922 1582.3128407066
150.6629959250 -237.1206297043 1582.3166046050
150.7974642816 -236.3933088163 1582.3203685035
150.0243949858 -237.1968952347 1582.2477819433
150.1588633425 -236.4695743467 1582.2515458417
150.2933316991 -235.7422534587 1582.2553097402
149.2608092368 -237.5685848370 1582.1697202611
149.3327851886 -236.9889759850 1582.1688646494
149.4672535452 -236.2616550970 1582.1726285478
149.6017219018 -235.5343342090 1582.1763924462
148.9848836184 -235.9686405375 1582.1153546616
148.4523003955 -236.6132756280 1582.0667212643
147.7838510349 -237.3743143915 1582.0049564079
174.3281216064 -249.9488482697 1585.4018076635
173.7329290143 -250.7410818935 1585.3481745811
172.4487624775 -252.5470986289 1585.2339639124
171.4063327734 -254.8051218935 1585.1535856843
172.8334786878 -251.2290086467 1585.2560793889
170.4360147709 -256.4835534684 1585.0721745867
171.5505561766 -253.6459385142 1585.1515199454
171.0912402135 -254.3217939219 1585.1111348879
169.6111641972 -257.6137147961 1584.9983489755
170.4743779704 -254.7559853439 1585.0495244323
172.9439535889 -248.9218488325 1585.2323963650
169.3273320882 -257.0565369953 1584.9582130138
171.7969077067 -251.2224004839 1585.1410849465
170.0667480835 -255.1051199922 1585.0097803574
172.5363237021 -249.2709834808 1585.1926522901
170.8061640788 -253.1537029890 1585.0613477010
170.8987014058 -252.3212403692 1585.0586409795
169.9500530543 -254.3577141460 1584.9852072552
169.4077905641 -255.4341401424 1584.9418663805
168.8655280738 -256.5105661389 1584.8985255059
167.2483314030 -259.3079520971 1584.7628403433
167.8627055948 -257.6519344110 1584.8051483485
167.9865033727 -256.7456219619 1584.8047564617
167.5055177586 -257.0634351677 1584.7563940310
166.9103251665 -257.8556687916 1584.7027609486
164.9215335676 -242.7061168784 1584.2464133105
161.9119819156 -230.1726304317 1583.7176648175
161.0967221419 -230.8708997282 1583.6381766677
160.1168133395 -232.9812233343 1583.5624281088
162.5863889580 -227.1470868229 1583.7453000415
161.6064801556 -229.2574104290 1583.6695514826
162.9711051683 -225.8289968407 1583.7674155180
163.1682586734 -224.9540058340 1583.7756419869
161.0208783634 -229.6177520217 1583.6102558615
159.1235816604 -233.6906995752 1583.4633884128
161.5931572789 -227.8565630639 1583.6462603456
161.0917460394 -228.4272471999 1583.5995717669
159.2461354126 -232.1734739941 1583.4533453008
159.6104259975 -231.1082549420 1583.4771346293
158.2108084571 -232.7777789634 1583.3480020836
156.8545302187 -235.1633873884 1583.2348242844
157.0721093492 -234.0355254516 1583.2413769013
156.3627097791 -235.3021794934 1583.1824731671
155.5595288565 -236.7903830229 1583.1166249291
156.4552471061 -234.4697168735 1583.1797664456
155.7771079869 -235.6625210860 1583.1231775460
154.5037762756 -237.6475589224 1583.0129555639
155.0435507146 -235.3493066618 1583.0369939882
153.8027234798 -237.8714078010 1582.9387380659
154.4170976717 -236.2153901149 1582.9810460711
153.7906446287 -237.0814735680 1582.9250981541
154.3737583697 -235.4993057112 1582.9650913247
153.8723471302 -236.0699898472 1582.9184027460
152.9441244041 -237.8535926938 1582.8432951697
153.5885150212 -235.5128120464 1582.8782667843
152.7853340985 -237.0010155760 1582.8124185463
151.9821531758 -238.4892191055 1582.7465703083
151.8967185975 -237.6679634301 1582.7243120407
151.3315424306 -237.7754340926 1582.6633425676
151.3507240304 -236.9116500303 1582.6520174904
150.3178851262 -238.7377812638 1582.5659767237
149.9294368390 -238.2231318498 1582.5149075716
149.3438350468 -238.5834734425 1582.4556119505
148.5477568728 -238.4179586768 1582.3647987235
148.8699521814 -237.2475683531 1582.3822845308
148.3060200401 -237.9659521476 1582.3309662829
147.7070953712 -236.9254463752 1582.2483795248
147.2357005570 -236.8113675500 1582.1943545555
172.9268741233 -252.1014440122 1586.0212719636
173.6577702092 -249.9717180508 1586.0650784230
173.0303569016 -250.8372148618 1586.0108387360
172.0794810839 -252.8727810017 1585.9411442604
171.0345821334 -255.1298063644 1585.8649070916
173.5105246330 -249.2980468282 1586.0371980134
171.4207267320 -253.8120975537 1585.8847236757
172.2976835507 -251.1342467983 1585.9351670805
171.4301863773 -252.7693276262 1585.8677477549
169.7584665408 -256.5027478083 1585.7478926311
170.3433018938 -254.9211466408 1585.7850621450
172.8192443935 -249.0893871045 1585.9573530669
171.7010188657 -251.3150258601 1585.8724865593
169.6532064975 -255.9342829338 1585.7264606626
172.1291489972 -250.1025233975 1585.8987515845
170.2380418506 -254.3526817663 1585.7636301765
168.3469347039 -258.6028401352 1585.6285087685
170.8228772036 -252.7710805989 1585.8007996904
168.9317700570 -257.0212389677 1585.6656782824
167.9808942393 -259.0568051076 1585.5959838068
170.4568367390 -253.2250455713 1585.7682747287
168.5550851037 -257.2961778510 1585.6288857774
171.0310276034 -251.4644183147 1585.8011766993
170.0174696972 -253.6476239365 1585.7271204282
169.3173222339 -255.0926321487 1585.6748731345
168.6171747707 -256.5376403608 1585.6226258409
167.7603220859 -258.3517472778 1585.5594740585
167.9063828188 -257.8036224838 1585.5661110039
168.0417990630 -257.0764716008 1585.5684804061
168.5639523274 -255.6425099153 1585.6012881245
167.1323163566 -258.6063460805 1585.4946126395
166.5155475376 -259.6508689806 1585.4446404958
167.1417760019 -257.5635761530 1585.4776367186
166.1382701627 -259.3149098557 1585.3972262588
166.2003598296 -258.5563723654 1585.3909663222
165.0862430509 -243.4240210590 1585.0066046718
164.9596940304 -242.4975040063 1584.9766376167
164.5510756112 -242.2353646222 1584.9270424820
163.9437664375 -242.2371175949 1584.8600944175
162.2560512161 -229.4762915533 1584.4534525285
162.1714877285 -228.6549808487 1584.4299339144
161.6907275754 -229.5832508741 1584.3929529050
161.2099674222 -230.5115208995 1584.3559718955
160.7292072691 -231.4397909248 1584.3189908861
162.4736612612 -227.1268593417 1584.4368536166
159.7570424741 -233.1173048865 1584.2407613239
163.2252539027 -224.7442875502 1584.4785734304
161.7102392877 -228.1086090274 1584.3696227954
162.6711671723 -225.6411709684 1584.4329630822
161.8976931318 -227.0547925734 1584.3720864498
160.2886553839 -230.6405732735 1584.2565931215
162.7645978835 -224.8088137372 1584.4288840434
160.9361728255 -228.9113326241 1584.2981244309
159.8912738750 -231.1683579869 1584.2218872620
158.8463749244 -233.4253833496 1584.1456500932
161.3223174241 -227.5936238134 1584.3179410151
160.2774184736 -229.8506491761 1584.2417038462
159.0131322129 -232.6244127256 1584.1502003931
159.1591929458 -232.0762879317 1584.1568373386
159.3052536786 -231.5281631378 1584.1634742841
157.9256553078 -234.1653337320 1584.0568930512
158.3224443950 -233.0266510103 1584.0809771786
159.0326439252 -231.1497708790 1584.1268702835
158.4992537505 -231.7938084671 1584.0791732898
157.5690744885 -233.5765287769 1584.0073921687
156.1055050517 -236.0032866748 1583.8879140538
156.8783866706 -233.9787670616 1583.9381689542
156.2817219855 -234.1595461234 1583.8754884329
155.1634964578 -236.3851848789 1583.7906219253
154.7868115045 -236.6601237622 1583.7538294203
155.4656699904 -234.8570633719 1583.7975416275
154.1907392411 -237.4518008323 1583.7017706311
154.8695977271 -235.6487404420 1583.7454828383
153.5946669778 -238.2434779024 1583.6497118419
154.2735254637 -236.4404175120 1583.6934240491
154.9523839497 -234.6373571217 1583.7371362562
153.7087942447 -237.1582748411 1583.6435461576
154.3876527306 -235.3552144508 1583.6872583647
153.9796267330 -235.7039730750 1583.6482849620
152.8927422496 -237.8557920896 1583.5655993521
153.3829620480 -235.8847521368 1583.5856044407
152.3901006974 -237.8151119285 1583.5094615241
152.6088955859 -236.6874757335 1583.5141060763
151.8981036340 -237.9534578565 1583.4575912394
151.2813348150 -238.9979807566 1583.4076190957
152.3676268768 -236.2352637337 1583.4796829735
151.9702453679 -236.7630484471 1583.4449771140
151.3422396386 -237.0176472499 1583.3801156950
151.3836327499 -236.5119555897 1583.3759424040
150.2861037777 -238.4847485152 1583.2889892509
150.4215200219 -237.7575976322 1583.2913586531
150.7449825319 -236.5875283033 1583.3068134417
149.8354998255 -238.1174027831 1583.2329456751
150.0962802469 -237.0949729362 1583.2440386683
149.2494796292 -238.4772079339 1583.1745326971
149.4570376073 -236.5596476415 1583.1642879740
148.7042601224 -237.7204234164 1583.1013246960
148.1395289034 -238.4382807455 1583.0514468046
148.7764018564 -236.5300140070 1583.0887105707
147.8249336171 -237.9546821386 1583.0083943630
147.9183643283 -237.1223249074 1583.0043153242
147.3636851762 -237.4083103173 1582.9480832440
161.5480868252 -231.3728937234 1595.6898858573
160.4597579565 -233.3505306990 1595.5975013943
160.1382978714 -233.9111301025 1595.5700082710
161.5521183759 -230.3299867979 1595.6811864494
160.5179537630 -232.5916590995 1595.5967390415
159.2358919230 -235.4450089308 1595.4924814476
161.6838770403 -229.6021933246 1595.6881070339
160.8240467965 -231.2411099702 1595.6157868746
158.7982932754 -235.8694923907 1595.4520987228
159.1275634114 -234.8769382787 1595.4766073376
159.4142578428 -233.7793463493 1595.4959092883
161.8196672555 -227.8314929257 1595.6863282105
161.4440429146 -228.1080570033 1595.6508980322
158.1052404001 -235.6637489463 1595.3804760133
160.5532255174 -229.8209333401 1595.5761015996
157.5048959346 -236.8899855708 1595.3306964308
161.5216373232 -227.0962282039 1595.6498815617
160.6424084773 -228.9881020494 1595.5778155200
157.5399146386 -235.7731189541 1595.3244732962
159.9878997559 -229.9303033479 1595.5200988825
158.7987993761 -232.5617741056 1595.4232701083
157.9195705302 -234.4536479510 1595.3512040666
157.0403416842 -236.3455217965 1595.2791380249
156.0371642247 -238.5332344068 1595.1971668902
155.9288357131 -237.9651637548 1595.1812927802
156.3200801558 -236.8246902604 1595.2107539415
154.9528669067 -239.4679644569 1595.0960830194
154.9878856107 -238.3510978401 1595.0898598848
155.7509758941 -236.3231080511 1595.1490363250
153.9073667929 -239.8967801072 1594.9944909133
153.8068483322 -238.8967547467 1594.9756322949
153.0709667020 -240.2398326275 1594.9132172285
154.1439285192 -237.4722459263 1594.9971564012
153.0906183545 -238.3330162851 1594.8985488036
151.6692408495 -240.6922551556 1594.7759408265
151.8009995140 -239.9644616822 1594.7828614110
151.8707838717 -239.3845875913 1594.7848294490
152.0025425362 -238.6567941180 1594.7917500335
151.4178181725 -239.0191213256 1594.7360014340
150.7633094512 -239.9613226241 1594.6782847965
150.2947236502 -240.4597657753 1594.6354257984
150.7983281552 -238.8444560074 1594.6720616619
149.7603850421 -240.4951760919 1594.5818993545
149.3499950475 -240.2347476436 1594.5382780036
148.9743707066 -240.5113117211 1594.5028478253
149.5399495185 -238.7480825707 1594.5444362352
149.1643251776 -239.0246466483 1594.5090060569
148.7267265299 -239.4491301083 1594.4686233321
148.0336736547 -239.2433866638 1594.3970006227
146.9957305415 -240.8941067483 1594.3068383154
147.0229391946 -240.2091948400 1594.3035996892
146.5117776890 -240.6026001738 1594.2555340271
146.4654234841 -239.8866101394 1594.2446124636
161.6629640184 -230.2734937792 1596.5621712486
160.8918507169 -231.6883573168 1596.5002071951
159.5791463606 -234.1800107584 1596.3955512527
162.4703121924 -227.1309216852 1596.6104763338
158.1728213619 -236.8932790813 1596.2838693928
160.8455390283 -230.3612913975 1596.4824006668
160.8837892639 -229.2445377362 1596.4750347978
160.4760844504 -229.5939139929 1596.4382960566
157.8124255022 -235.6939745376 1596.2363500406
161.6710046385 -226.3548650253 1596.5238762679
159.0073456902 -232.4549255700 1596.3219302518
158.2160995892 -234.1226884906 1596.2605025832
155.7356511992 -238.5576094826 1596.0600222033
156.3557580885 -235.8582671510 1596.0942754537
