123.1210571869 -299.1691908789 1842.0421343682
126.2864589291 -302.7948321422 1830.8236372747
124.6007088102 -301.0265057135 1832.1312532016
125.5415854069 -300.4974381098 1841.7249977683
125.9128315166 -300.3762316624 1844.9142649656
124.9801330034 -300.1149371382 1840.7546405152
125.2265669664 -300.0529704637 1842.7457705990
124.3239743368 -299.9038836116 1838.0137557529
125.0664665562 -299.6614707169 1844.3922901474
125.5336510440 -302.7656787203 1818.8387414848
125.6166517585 -300.3994652232 1835.4591030167
126.2870022681 -300.2163447171 1840.9562467540
126.2411135311 -299.7669472022 1843.7218044487
126.9821845809 -301.8055584802 1825.5788725531
125.5773095791 -301.5498339908 1818.4079986081
126.8106803568 -300.2427719078 1835.1806659730
125.0433900915 -298.1479146010 1838.2898352501
126.0240615152 -301.3842700434 1814.8557923211
125.5959891625 -300.5594376245 1817.8434547246
127.3324812032 -300.3820766278 1830.2388814354
125.5333698664 -300.1735829087 1820.1257107237
127.8349589752 -300.2607338750 1827.1779958512
124.5382675707 -298.5735293478 1817.8664205139
123.4902718036 -297.8098700977 1816.4867146165
122.5449775662 -296.9909806781 1816.1465207123
121.2818983699 -296.1184787316 1814.1507258198
120.5554510941 -295.3535824608 1814.8319886730
125.7625499836 -298.5721476495 1820.1518538628
127.8069983503 -297.8754047039 1838.3455578424
127.6297262728 -297.5493459209 1839.5098166088
122.4025976694 -296.1728070258 1815.3970278925
129.9790036627 -299.8608816805 1832.6685225125
124.6956611336 -297.1869497903 1817.4968630556
124.0153878190 -296.4260515117 1818.4961587085
122.9071094389 -295.6093931070 1817.1263040452
122.1428477620 -295.0106904571 1816.4335578188
126.3891211733 -294.9181349476 1844.5149871915
121.5926644084 -294.7377991300 1814.8142438488
125.5609555820 -294.1566869663 1844.5629863224
125.0801541019 -293.5590379133 1845.6935584296
130.8804154226 -300.5191178609 1829.7572229499
129.4171350752 -300.0267291120 1823.8146484245
127.0801851127 -298.3383936349 1820.6882459894
128.6195133343 -296.7153053109 1842.0471010898
128.2682548450 -296.6058115747 1840.5591816688
123.2941435156 -295.1812360439 1818.6003265969
126.3585325343 -294.0507117658 1846.2981051013
121.4884791837 -293.8741477886 1816.2028998079
130.7601097501 -299.8844330694 1826.8041208206
130.8775925123 -299.0266090133 1833.6889469693
130.3256607708 -298.9660966042 1830.5272479926
130.0184094384 -298.3715564993 1832.7684607184
130.0994363004 -298.2651467860 1834.0551495767
127.6325145717 -298.0199000951 1819.7436471800
126.7926453210 -297.2576766643 1819.7134910993
126.0711167171 -296.7654357746 1818.5276780510
129.3188223809 -296.5906765170 1840.9189901729
125.6246110916 -296.2228826010 1819.4913724466
124.5537179013 -295.4041050187 1818.3605825674
130.5268542635 -299.4717963129 1823.9968707379
129.7040337880 -298.8181015067 1823.3141378336
129.9363237042 -298.5597034054 1826.7697176781
130.0877689826 -298.4577663287 1828.5325626702
127.9755985896 -297.4558916624 1821.7992674990
130.1126521446 -297.1909676415 1838.0304277869
129.8674417912 -296.7097332027 1839.9368568913
128.8025833512 -295.2580302149 1843.5151957741
128.4745787504 -294.7219755441 1845.2722203524
127.9591594408 -294.0229415980 1846.9775032842
132.3415974711 -299.6997706438 1826.7461103751
133.0977907968 -299.6778539118 1832.0684218538
131.3581795807 -299.0905216456 1824.6279458054
130.8741669767 -299.0195162541 1821.8617785060
132.3767374089 -298.9234465919 1832.8328878145
129.5942506013 -298.5022268566 1817.0288721338
131.0846621519 -298.4056759330 1827.9206826307
129.0686304581 -298.2740316093 1815.1628650761
128.8399543690 -298.2131327065 1814.0619728193
130.6273099737 -298.2838781275 1825.7188981171
130.3986338846 -298.2229792247 1824.6180058602
128.7296332959 -297.6902894635 1817.2475375184
131.8544658836 -297.8139736349 1837.6273320867
129.6317332016 -297.6741478679 1823.5214347357
128.9531784909 -297.5954422945 1819.4864864516
128.2746237802 -297.5167367211 1815.4515381674
132.8530019617 -298.4638289918 1830.1572321327
133.1486988686 -298.3206721564 1833.2780842438
130.7892419337 -296.7225101105 1829.1839599933
130.0157787529 -296.3801378102 1826.4635187765
131.8956820949 -296.2502815996 1840.3799105793
128.6955093693 -295.1352621341 1826.8346782177
128.3370351384 -295.0170039168 1825.2669392989
126.8336514557 -293.8163745274 1824.0426375519
126.3597623655 -293.2274699963 1825.2546401749
132.9800208923 -297.4326623128 1832.5350200357
131.9189449068 -296.9213473720 1829.1299009250
132.1185613677 -296.7779272743 1831.6164375379
130.6557304899 -296.2980503327 1825.1883792088
129.6080864867 -295.4300006128 1824.6244741356
129.6380755377 -295.2782975584 1826.0007464763
125.4817643134 -287.6722512649 1855.8289855663
132.8548400353 -296.7214050014 1830.1869574157
132.0477393463 -296.0276439123 1830.0731234959
131.5377646561 -295.8396086582 1827.8802689223
132.5801277717 -295.4014700053 1839.3309316109
131.5819825335 -293.8270702332 1845.2601873279
127.5980120832 -292.9551675927 1823.0708002590
122.4398742643 -284.1565610934 1859.3250993765
134.1874276315 -296.8655879002 1834.4334286616
133.6566837457 -296.7200292888 1831.6752727147
134.1288516093 -296.4416781640 1837.7737514034
130.9784152896 -295.1071471385 1825.6063967490
132.9085408711 -295.0663305304 1840.7320990708
130.5188514902 -292.0419547041 1849.4840667684
123.8069798339 -285.1046754338 1860.1493301726
123.2710677319 -284.7727822764 1859.0168381770
122.1133175756 -283.5430068121 1861.1527143168
133.9161570422 -296.8196754426 1825.8415709951
134.1038505746 -296.6663000378 1828.8174106565
132.8849760684 -296.1645747638 1823.8959776270
132.7134266819 -295.7909349044 1826.1174651210
133.5269816496 -295.6700184193 1833.7857124317
132.7680465379 -295.5331199574 1829.0335918331
131.8294899668 -295.2860892682 1823.9042951508
130.0112371530 -290.9640513682 1850.9294947453
127.5561349401 -288.2392621839 1857.5017472398
125.9516499143 -286.8528106900 1858.0051578528
134.5184814086 -295.6849545280 1830.5750258430
133.5776747288 -295.4509102659 1824.9597252778
133.5745576260 -295.1651355168 1827.9672322029
132.6645813122 -294.8953372054 1822.9970171249
131.6484047433 -294.0785340546 1822.9204909933
131.2460438153 -293.6465219363 1824.0432394493
130.1451612866 -292.8974904207 1822.5177958710
132.7511331536 -292.5864627859 1848.2577706656
129.0676036971 -289.0142778243 1854.4717946494
127.1358369818 -287.1117108595 1858.0406084362
125.2305427837 -285.3764471051 1860.0609323430
135.7904417489 -295.5585651844 1829.1837570050
135.2114313716 -295.0299283987 1830.0116683412
134.5889113650 -294.6076703453 1829.2211648874
134.4118909747 -294.3453682229 1830.6324345728
133.5169572636 -292.3829362143 1845.0871550285
132.4185562213 -291.2604877961 1848.0335800127
130.5365343439 -289.3037424688 1853.4676263276
128.5467530268 -287.4795009505 1856.3998401885
123.4323201286 -282.9689931925 1861.8841673439
136.5584311871 -294.6940295403 1830.4863190338
135.7997610917 -294.2101438117 1829.2326317707
135.0642578708 -293.7310078583 1828.1376461826
135.7850150852 -293.8058162883 1833.9514299850
134.6292554696 -293.4958929281 1826.9103781042
135.6339420239 -292.6438943306 1846.4996352159
138.1548988446 -294.3645674071 1833.1112807205
137.0836834517 -293.9275120925 1828.3318531325
137.4535858713 -293.9683424651 1831.3587429455
136.4909933249 -293.6613151257 1825.9922860980
137.3209815631 -293.5466396918 1835.3633792417
136.3925478047 -293.2466923269 1830.2350618384
136.3116350297 -292.9432175711 1833.2557698012
135.4859798694 -292.7362488338 1827.9477790643
127.9020290004 -284.2476095421 1861.5591177903
137.9050552050 -291.9950301800 1840.0136220118
133.3653415840 -288.8822254582 1835.8182765050
132.2666092085 -288.0849073937 1835.3527553343
124.6451684397 -282.4471156208 1833.4644359703
121.3151434697 -279.9770463876 1832.7239418005
139.1237580546 -291.1104312094 1843.4333581393
138.4692985105 -290.8653493402 1840.2920623282
135.1020422922 -288.6494913378 1836.3125057015
135.7575727810 -287.7862698149 1853.6040697539
132.7814118279 -286.9018661699 1836.3832161478
130.2572285519 -282.9971941595 1862.0245335658
127.1396575367 -280.3155638923 1866.3787853507
136.9260283821 -288.7655780286 1837.3039245580
136.0976736042 -288.2129390889 1836.5515812360
136.9876528601 -287.7592718968 1851.5265397011
133.8330079346 -286.6715544326 1834.9073464623
132.3330235137 -285.6352442051 1834.0263944127
134.0788127488 -285.2796688161 1856.1742535468
130.5263028983 -284.3637868153 1833.2794736234
133.9814426674 -285.0926787210 1857.7363012995
128.9571286730 -283.2457245290 1832.8170716260
132.4079499667 -283.8090294805 1859.4706210515
127.8973426802 -282.5081783305 1832.2671544116
131.4993728336 -283.1062633861 1859.9520490817
126.3918419840 -281.4376805552 1831.7938130121
125.4128772465 -280.7845618082 1830.9046799952
137.4885067421 -288.7787275952 1840.0546668871
136.5539250457 -288.2123364178 1838.6733308803
132.6878251988 -284.2886604460 1857.9062142412
131.3971467084 -283.1701169615 1861.3069267324
128.1547165181 -280.8394611535 1862.2849868538
138.7047554531 -290.8027511013 1841.5581296653
138.2038762580 -290.3372561275 1844.0905031816
134.3540515431 -288.3501404100 1834.8508759093
133.3484078376 -287.6918011151 1834.9503247694
135.7374339126 -288.2694042700 1852.5122361916
130.8741948617 -286.1692505632 1833.4414614348
130.9458637244 -286.1397914233 1834.8125385994
129.7724789272 -285.4836804048 1832.9069099915
132.9649539923 -286.1396951789 1858.4653047659
128.4658388887 -284.6404800862 1832.8162617773
127.2196293020 -283.8641813449 1832.2262868158
125.7844544075 -281.1180585913 1864.9668983779
136.6894203708 -290.5556756719 1837.8533167645
135.8848051186 -290.1406075781 1836.2942528160
135.4717170662 -289.2803258031 1853.4026493968
134.3199748388 -288.6123958757 1853.2129658357
130.0519066935 -286.7746542232 1834.8709521451
132.7898494047 -287.6318525509 1855.5393574610
126.7952025026 -284.9385910514 1832.8791304501
129.4197951130 -285.4635837140 1860.9025874253
128.6763128781 -284.9728520224 1862.4283845169
126.3845032485 -283.5437927578 1864.8172898580
125.4926464373 -283.0004536305 1865.3933212190
124.1857725905 -282.1964048219 1866.4552361211
137.9103670969 -291.1148050797 1845.7695128340
130.5560331465 -287.4309154061 1833.0236945423
128.7635527505 -286.4758645979 1833.0483143291
130.1453765536 -286.7254989820 1859.6800116015
127.9087800891 -285.5025736847 1861.4219519583
137.3059798456 -289.9332404203 1844.8397943781
137.0485837756 -289.7903004466 1846.8479261481
125.2445563302 -283.9884358895 1832.4859452236
138.7694999495 -289.7538024652 1840.7234872256
137.1235111122 -288.9405065206 1841.8617489760
137.0543548721 -288.8357729187 1848.6420235178
133.9325068118 -287.4273683027 1838.0039668040
133.9208493163 -287.2430821035 1855.0453038392
119.9642768559 -280.7245332501 1828.6790553665
139.0301959704 -288.7665142176 1844.1195270820
137.8892071772 -288.2925922856 1838.9607133714
134.9943379137 -286.9266769612 1836.5100307350
122.8353568270 -281.1539792954 1828.5332106321
116.8776231397 -278.3426973255 1823.5016298228
135.9993521106 -287.0021549153 1838.0119640422
134.5303377674 -286.2935930349 1838.4637629479
136.7339843862 -287.0177449690 1853.2892816066
126.7983580319 -282.7505237937 1832.3127856934
131.3973796308 -284.3033205007 1861.3549834328
124.1513717501 -281.5390417577 1830.1401521453
122.9186909485 -280.9599450301 1829.8111561911
120.8321038032 -279.9995756847 1828.3443850604
120.0321671686 -279.6655985168 1826.2168547349
117.9322723846 -278.7006255893 1824.6711020537
117.2193286493 -278.3299496843 1826.1167052163
115.8057623230 -277.7264454976 1822.9673862717
112.0278740855 -275.9615338226 1821.5065091064
132.9734664177 -285.6711985342 1836.0978385315
135.2743018073 -286.3834181897 1855.0680381970
118.6301673188 -279.3368177598 1825.6583675890
118.3103656256 -279.1559451385 1827.6816589833
116.5740124947 -278.4153295962 1824.9265186451
138.2033494712 -287.8923645850 1842.6258273172
134.6442582008 -286.2689423155 1857.4787628895
129.1716862909 -283.8722875049 1863.4949773153
127.1315150390 -282.9901105780 1863.8296663989
118.1797362088 -279.3482420877 1826.6245649919
115.7613902276 -278.3106681456 1825.6482649451
114.9140815466 -277.9484382498 1825.0862678379
114.0018345480 -277.5629467191 1823.7209554527
131.5477798721 -283.8546712822 1836.8482832245
130.9610067439 -283.6139991206 1834.8466117470
133.0860025536 -284.4973177278 1860.1437252277
129.2266432686 -282.9245491739 1862.6699785656
138.1054701459 -285.7274573352 1838.5565893693
136.1213420434 -284.9332918398 1838.0727815569
137.7524864440 -285.6071841453 1854.7291256729
129.0477113889 -282.0981214790 1833.3420096852
127.8918010527 -281.6362401459 1833.6655593903
124.9331950664 -280.4513341683 1832.4049934529
122.4060299580 -279.4371740010 1829.7466572044
120.7569338998 -278.7772288262 1829.4379143030
141.9063534058 -286.0690099464 1842.4197971888
140.6533120294 -285.5641880140 1850.9429339774
136.5923513914 -283.9827982299 1837.0821695252
133.0259679607 -282.5806301761 1835.0550930987
130.8576793970 -281.7256970524 1835.6764576619
129.6060602149 -281.2362013656 1832.9970886970
133.1040583460 -282.5785402315 1859.9778210453
124.9877424225 -279.4206646952 1830.2109105080
130.6250318467 -281.5996084390 1861.8095480709
130.6050031399 -281.5891266441 1863.7762072360
121.9905962358 -278.2419142389 1828.7995523662
140.2500628128 -284.8571623845 1844.6479032782
139.6073216998 -284.5794823245 1851.4897357822
137.7512025504 -283.8569809552 1854.2521903013
131.8020278869 -281.5477178227 1861.7200351424
124.0910400436 -278.7442647694 1830.7914189384
129.1081866318 -280.5048943837 1864.4952131167
122.1374303979 -278.0004423952 1830.1393189331
116.8698190051 -276.0116280817 1824.7866799887
115.8420108719 -275.6215052362 1824.1851076656
139.2811342210 -284.4299324538 1852.7498331260
137.1608868047 -283.6535618449 1857.4504149284
120.6066660256 -277.5305854116 1827.8251322451
118.9696064664 -276.9268980877 1826.8624075452
117.1694509521 -276.2634899476 1826.2612660608
139.0478219892 -284.9209271366 1853.8570568823
126.2173093611 -280.4406813254 1832.4650816687
131.1682184951 -282.2821368461 1864.5473441194
129.3813314904 -281.6721417310 1864.5210644857
139.7718848756 -286.1106642449 1850.5555393919
129.5021131363 -282.7291243689 1836.0065276370
131.8439503833 -283.8854762543 1862.5902724299
122.3877138131 -280.4746720827 1831.2490694218
127.1255113794 -282.4811682753 1864.9245384726
119.2069969835 -279.4646137746 1828.9932069951
117.7163183622 -279.0019073765 1828.5802778166
116.3281110627 -278.5525504958 1827.0810475051
139.1419359608 -286.2461075374 1838.8573829402
139.2498288906 -286.5465334873 1848.5758396657
132.0511422905 -285.0548075343 1863.4191314318
125.8717572653 -282.6039809006 1834.3217020525
131.3010833877 -284.8286655384 1862.4377128337
120.1093446171 -281.0030029430 1831.6575503239
117.9410779192 -280.3801214096 1829.9233088453
140.1373765228 -286.8227125150 1846.1045409379
137.7833790292 -286.0868434420 1841.2245677556
138.7607136931 -286.6398171186 1849.9339422657
133.1695979723 -284.9155461969 1838.9788540197
132.0411928849 -284.6041596042 1837.7565914952
135.6273560963 -286.1299200433 1856.1214272807
129.8802553663 -284.0214005292 1835.7820841902
128.8226827584 -283.7685903282 1835.6906735003
127.6852162702 -283.4824350354 1835.2075813570
118.9887565176 -281.0423597437 1824.7003595401
115.5832744285 -280.2157941833 1824.0685897822
139.0867112340 -286.8830780196 1851.1539122728
138.0649546417 -286.7559754796 1853.5943022779
134.1793576462 -285.3773787670 1839.0592576144
124.8443803018 -283.0529520415 1830.4116227345
122.3590921990 -282.4337307814 1828.0992223786
140.7313202282 -286.6470029290 1850.2686491664
125.7093682209 -282.9895857519 1831.3945378405
120.5986436376 -281.7990757288 1826.5464860314
117.4296347067 -281.0924468856 1824.4634716175
141.2794697658 -286.4447687938 1844.2056866262
117.2067514143 -281.2407265476 1825.9634713477
112.7060039329 -280.1735531465 1819.5064033778
123.0906358805 -282.2160029420 1828.9086158949
140.9190748115 -286.0627857833 1845.3514377140
140.0314223436 -285.9538189218 1847.6059981804
138.5021538593 -285.7999440756 1852.8802570415
141.5196293313 -286.5107627863 1848.4230665067
139.7913110687 -286.3309495868 1853.0947875277
136.3751763963 -285.8528960241 1857.8277477609
125.8843822828 -283.3205087542 1833.3017043222
129.6521094723 -284.7990916868 1862.9959682042
119.6518990858 -282.0127400021 1825.9499914046
119.5839480569 -282.0324357069 1827.1159697496
115.1182558721 -281.1371862405 1823.3821074230
139.3173630097 -285.8247388880 1843.6253512414
138.9184554603 -285.7263156969 1842.5677785734
140.3869306091 -286.3301542040 1854.2270317281
117.1801443071 -281.5387024149 1822.7476298147
143.1529568776 -286.0861544370 1842.9979231271
142.9566726732 -286.1560639292 1846.0877093255
130.1425078203 -283.8522710110 1836.9433483962
140.0310546388 -285.1097560939 1842.9160374531
133.0106401605 -283.8851822162 1838.1544717829
121.1578327876 -281.8394054779 1830.7477377733
115.3135272164 -280.6616714404 1822.1732785784
139.7269608672 -284.1554298134 1841.4557454955
139.3858927578 -284.0661648821 1840.3023486504
138.0987652847 -283.8400242468 1839.2886321314
138.6464055926 -284.4466815668 1855.1121187408
134.1634798177 -283.1756644604 1837.0048556887
136.1316017847 -284.1800736866 1858.4154632714
130.2457740040 -282.5165242465 1834.7991822766
118.8021497999 -280.5829889818 1828.1095675879
117.3148197891 -280.1893922494 1822.9492589935
116.5799446103 -279.9952036694 1820.4081562116
114.8988958953 -279.7241132582 1819.8157434932
139.3954287919 -282.9423106216 1839.6889802695
137.9077846840 -282.6704677276 1837.8200559579
135.8666599451 -282.4051625620 1838.8806786302
137.8418628413 -283.3091894686 1859.6448879534
128.9043554816 -281.3147070005 1836.2538828211
125.2328049919 -280.7064646171 1833.7512004137
142.3416239861 -282.2997747449 1833.7410240197
140.4093421884 -282.0773949042 1834.9369735167
138.9330043693 -281.8330703618 1833.4749664026
141.0374083493 -282.4278133402 1843.4276417493
138.5201872247 -281.8218392807 1834.8886541592
140.3311853489 -282.4153729350 1846.0623219571
136.3032570726 -281.5220495539 1834.8353262109
135.5295071188 -281.3902110470 1833.9481629732
134.5335133977 -281.2765156874 1834.5943115481
135.9056973926 -282.2446591884 1859.6110964254
144.5396418673 -281.3218160488 1835.8113022150
145.8582430396 -281.7701401747 1844.1381668553
143.9697799622 -281.2989887097 1837.2608705604
144.9537720041 -281.6186328295 1843.0342571853
143.1673082545 -281.1511880212 1835.8863038608
144.8228023111 -281.6922597775 1845.6968905720
141.9103172750 -280.9635660360 1835.0295382707
140.5358795173 -280.7314235639 1833.2955831304
139.3275146432 -280.6303106931 1834.8126013355
138.6558330194 -280.5063298770 1833.6541139799
141.5126610791 -281.3537584520 1848.0356630505
137.2303057932 -280.3210574867 1833.4948437197
135.5475862981 -280.1137274204 1833.6426156130
134.3946987913 -279.9913265363 1834.3241497794
146.2610452154 -279.1516601392 1838.4864895975
146.0040493010 -279.1540708034 1839.5317140538
145.3277707387 -279.0151443113 1837.9617559254
144.7719814779 -278.8851062370 1836.1997189162
139.5930551321 -278.8485270915 1854.7301847793
138.6385440625 -278.7923594855 1856.6755138092
133.9843212164 -277.5586418754 1837.6145521106
137.0613851127 -278.6368368322 1858.0246099475
131.8071456664 -277.2484494391 1836.6365839857
136.2179600020 -278.5746179078 1859.3691621136
130.1561546621 -276.9984423825 1835.4553275914
135.4884102241 -278.5564146371 1861.5914000762
134.5579251215 -278.4699657814 1862.5451290643
144.7771351983 -278.0699653036 1849.3747480929
140.9249490637 -277.4061276268 1842.6956449645
141.5124168835 -277.8718710257 1856.3664477594
136.2216613877 -276.7289684611 1839.1694002737
139.7780379566 -277.6994590552 1857.7491167568
138.7339357014 -277.5951360425 1858.5630780510
133.3260131448 -276.3273995754 1837.5306714976
137.4923783233 -277.4939913439 1860.3260976238
125.1922303843 -275.1985795100 1832.8988647140
123.3700383483 -274.9828563537 1833.1511854001
142.6072740089 -278.0162885854 1847.5518599440
130.9754305375 -276.5880747704 1837.1103363114
117.0997405358 -274.9455039676 1826.5163448032
115.6086751902 -274.8281893549 1827.1800404962
114.5974145500 -274.6684802700 1825.1902309637
139.0350778738 -277.5725564484 1841.1187094972
134.4688088983 -277.1206873205 1839.3505325350
142.8026734638 -278.4302732574 1851.6464366303
139.0661954402 -277.8277616650 1842.3787499466
142.3707658301 -278.5990484303 1857.5683585699
136.6763833180 -277.6037481991 1841.1837424213
133.3376658904 -277.2609582889 1838.6393169557
127.6201489254 -276.7480742825 1836.4566381173
126.2774443449 -276.6272458896 1835.9328388659
123.3736055415 -276.3089331067 1833.1281513909
142.1323241337 -277.8097430654 1844.6533848250
140.6587165067 -277.6777571444 1843.9141161472
136.6147453886 -277.2589981469 1840.0524308393
131.8719350315 -276.8515301462 1838.2347283078
117.8269388925 -275.5071919376 1828.3892659781
141.3232914612 -277.7876248629 1846.2190881500
141.4249688150 -277.9125810460 1850.0548851297
141.3413687284 -278.0560413828 1854.9168773417
137.0366068691 -277.3795489093 1842.7366867430
129.9249633569 -276.7216762014 1837.5821434951
128.3336643059 -276.5476134622 1835.5543400607
124.6434477809 -276.2076305572 1832.9247785976
119.8898685008 -275.7472450947 1828.8070811148
116.6301281617 -275.4749114371 1827.3955387116
115.9576381604 -275.3793033269 1825.8207250477
142.5489934823 -277.9835816679 1856.6508573265
141.6051419206 -277.9983664738 1859.0770528790
134.7383565762 -276.9830395441 1840.4867323661
122.8223399753 -276.0202506143 1834.0185308709
135.4511586455 -276.6589218649 1841.4700688107
135.5885614473 -276.7119996595 1842.8354112863
138.1706451214 -277.5433876992 1863.4455937767
137.2767469980 -277.4671494571 1862.7418317968
129.3511263874 -276.1091238148 1835.7695651772
121.8854321899 -275.5314785892 1831.6878088860
143.3966183505 -277.0912905529 1852.2893232814
142.4148774204 -277.0485514529 1852.6738364671
141.3820249353 -277.1488764846 1857.9989353051
130.8996915609 -276.0294634078 1839.6478638554
129.9002516912 -275.9397781054 1838.4754586527
127.9537052076 -275.7920527465 1837.1047338674
143.8021762217 -277.0149445021 1851.2015315970
138.5992299051 -276.5387533935 1843.0954745871
136.6145422712 -276.4198607053 1842.3142787482
136.7412290696 -276.4610374303 1843.6010232955
134.2065889113 -276.2983850023 1842.2050976884
133.3588319916 -276.2239481659 1841.0004147677
129.1463651269 -275.9154159744 1837.2733190567
140.3806106054 -276.4052880593 1846.3650022199
122.7808891684 -275.2166739130 1832.2119212241
120.5716741735 -275.0573594380 1830.0851226219
119.8999559706 -275.0676422287 1831.4721013580
144.3805186408 -276.1700664952 1851.7357573050
143.9481114798 -276.1888536932 1852.7374557732
141.3354009363 -275.8919144445 1844.7784984100
131.0602973627 -275.4272384478 1837.4795389815
136.0987738868 -276.3669287875 1865.3580027095
128.5252261894 -275.3243108807 1836.0787231808
145.5586369009 -275.7548736475 1851.7733307382
139.8997955348 -275.5128558578 1847.4614292052
140.4356766250 -275.9097020198 1861.1508721323
134.9275546149 -275.2787923872 1842.9122535239
134.0018920285 -275.2256021353 1841.7238265287
132.4777706017 -275.1773481766 1841.1637928165
121.3264771162 -274.7073734808 1832.9134366274
146.2042772733 -274.7201100733 1852.7350568493
139.3966936409 -274.4591899140 1845.5619295775
137.3815253680 -274.4021739934 1844.2919981993
140.2029291840 -274.8553264830 1861.8263839597
124.9183377055 -274.0161872990 1835.0298518862
122.5266744353 -273.9405759682 1833.1874164911
119.5238032751 -273.8444942627 1830.8257094601
145.0094216044 -274.2204055918 1852.4551078878
140.7843849969 -274.0003446889 1844.6075993101
140.0404217755 -274.0557187864 1847.1579232115
140.9243801307 -274.3764382020 1860.2748825884
138.7781652236 -274.4030672833 1862.0710219525
137.5187498704 -274.4257979374 1863.4218117940
131.7433319081 -273.8087498030 1839.4834265418
131.8322875218 -273.8364946860 1840.6141747127
130.8445926883 -273.7673705963 1838.0410374152
125.6038723398 -273.6945385346 1836.6677798780
124.1370686461 -273.6144947410 1833.7910737471
120.7238281246 -273.5575966121 1832.5013433727
129.9180814640 -273.0806983156 1837.4556768780
126.9855067122 -273.0568679130 1837.2050905349
125.1133662297 -272.9828679868 1834.3352487161
122.5374510995 -272.9559857638 1833.8408604552
120.1530270468 -272.9329444449 1833.4681578011
143.1878224214 -272.9511232621 1857.7104462219
130.0993279883 -272.5405455026 1838.3479484885
127.9333826781 -272.4933172199 1836.3636036035
123.6792394134 -272.4241698546 1833.8566342282
120.2165696316 -272.3765189087 1832.3243538567
144.9954744596 -272.5000313393 1854.7208399349
144.1164759700 -272.5089028409 1855.5734579725
140.7763155647 -272.3720269805 1845.7147673444
140.3582821000 -272.4042799812 1848.2728485868
138.6879514515 -272.3599213111 1845.1924874537
129.1954026892 -272.2273557378 1836.8645610546
127.1854574175 -272.2055907416 1835.5852933037
125.9672450181 -272.1985291011 1835.2806300342
122.9915365313 -272.1610519436 1832.9832344779
123.3305500844 -272.1962484938 1835.6197031298
119.0585108917 -272.1324739104 1831.5558511470
139.7682458353 -272.3717671461 1862.8482494806
138.6494838984 -272.4119964765 1865.2299062767
133.3283979834 -272.1187311405 1842.1694813070
124.7031027773 -272.0649055586 1834.7028050652
118.7183643244 -272.0276738572 1829.5301922383
117.6967294460 -272.0577633049 1831.2333811731
116.5871784004 -272.0354036826 1829.1775505427
146.4545966288 -271.3374576615 1854.0647050764
143.5390037101 -271.4524361604 1859.4710883890
139.5013700511 -271.5765023088 1864.6317113397
121.2229450967 -271.3033477334 1832.7604663136
119.8898592079 -271.3341685879 1833.7933304401
119.4130979477 -271.3238138743 1832.7483196056
117.7557828233 -271.3023033469 1830.0740003862
139.5317450458 -270.2586683112 1842.5906295231
137.1831133804 -270.2919403034 1842.3663893670
138.5692319798 -270.5785742886 1864.4013340405
120.2673003687 -270.4234225837 1833.0166375602
118.4882414753 -270.4265959845 1831.2713473526
143.8653165196 -269.6042358480 1856.9427443019
142.7175408102 -269.6200408170 1856.2105994227
141.8919932236 -269.6243143939 1855.0785454331
135.1597549417 -269.6240039481 1842.8460207047
139.3265835492 -269.7865491513 1864.2729899682
134.0645980673 -269.6327783215 1841.6092604372
133.9330509797 -269.6503548104 1842.8707989079
138.3688739586 -269.8170784754 1865.1420796632
119.3097302115 -269.8217655378 1830.9864984207
118.2319079767 -269.8310894655 1829.8280680950
117.3890257505 -269.8348134881 1828.6176841637
117.6394556496 -269.8558009124 1830.8628761412
116.0762635070 -269.8497373208 1827.5112074438
141.5198731008 -268.2517228350 1845.4518641055
140.3980670597 -268.2765816228 1845.2061215364
142.9366302139 -268.3196804749 1856.7229523492
140.5060374597 -268.3020555513 1848.3040557133
138.8352867380 -268.2973309644 1843.3323737425
133.4729147276 -268.3987944739 1840.2420030058
128.8808531717 -268.5032042590 1839.5285827326
127.1971888903 -268.5219012743 1837.1064144238
127.1256672040 -268.5341960576 1838.2722807330
138.5923438973 -266.9663730350 1843.3231479463
141.8670006490 -266.9598213657 1858.6210577380
136.8460099530 -267.0055332042 1842.4743264384
134.2494435621 -267.0614759025 1840.7443138618
130.3746465552 -267.1480775311 1838.8019819699
141.5237250079 -265.8957893262 1846.1260525340
140.6568838018 -265.9195686853 1847.7938621259
140.8035485514 -265.9172348681 1850.7181963888
139.5748498970 -265.9473270785 1846.2238360068
139.1024663924 -265.9588659308 1844.4383395521
141.4493376448 -265.9039075107 1857.8037338352
137.2540864908 -266.0070015762 1843.1180575121
134.9134723879 -266.0689336068 1843.3015253435
133.6233469246 -266.1020836238 1841.5306468818
137.5634929891 -266.0088739133 1862.1849498325
132.8104093920 -266.1241730968 1842.6939305581
131.3414409211 -266.1628040764 1842.3582544810
130.5826180596 -266.1818134082 1840.3890425553
129.2116370861 -266.2174982544 1839.3749529669
128.4062226888 -266.2382198069 1838.3192806385
127.6177292811 -266.2599203104 1839.9699533587
126.5969111876 -266.2860111521 1838.3044150060
125.4781055966 -266.3150481272 1837.3172901644
124.5331275897 -266.3395160868 1836.3742669415
139.5028268202 -263.9500799376 1848.4109597298
138.8544496498 -263.9012329449 1859.8759325123
137.9946145231 -263.9113651340 1862.3592382817
133.6579853434 -264.1346173682 1845.6503656141
136.6860888111 -263.9377119940 1864.2827909220
131.7016404435 -264.1995735813 1844.1847993503
128.8491705829 -264.2901587968 1842.7483818421
128.7780798667 -264.2829331886 1844.3229717287
120.0190292628 -264.5906841960 1834.8870434015
140.0612209048 -262.8691919124 1850.0297108087
140.6845766525 -262.7725908893 1859.9032326762
139.4046977223 -262.8241739550 1858.1253737752
139.1892765888 -262.8171006460 1859.8116342889
138.9270197412 -262.8009060930 1862.8201717307
137.3898573640 -262.8329031863 1864.4598850174
132.9388867348 -263.1171145870 1845.0672662979
129.9766778651 -263.2073033029 1844.6319658050
125.5326399873 -263.3533452366 1842.6258589692
140.5265947860 -261.6082664623 1848.9914758734
139.8294027277 -261.6507713687 1846.8429509866
138.0040006786 -261.7078506475 1846.7354218731
140.0228337941 -261.5131583163 1860.2462020907
140.0677669216 -261.4981813586 1861.6303247083
139.6128494174 -261.4950952409 1863.3656132448
138.4817734105 -261.5443814882 1861.8822673884
137.4235133650 -261.5497056255 1864.6463149604
132.6898452232 -261.9010266112 1843.6735256816
132.3714029703 -261.8988663288 1844.8882276572
130.1126755956 -261.9780125179 1843.8882261028
129.2869748099 -262.0113101169 1843.0783651515
127.2141976989 -262.0875500170 1841.7932868699
125.7476291454 -262.1206677872 1843.0037911824
140.6624912020 -260.7049734279 1850.1710815065
141.6557047053 -260.6142943225 1856.1097531956
138.9116753783 -260.7856503707 1847.6689076717
140.6455261067 -260.6321795023 1857.5502788027
139.2920209872 -260.6578519649 1859.3084565627
136.0851503869 -260.8894229564 1846.2931566900
138.6525154848 -260.6345574389 1863.7036776964
132.8306763085 -260.9921023081 1846.4000775701
129.7522840061 -261.1041945877 1844.9950459524
129.4977073404 -261.0971206859 1846.5234134676
128.0288147576 -261.1514791075 1845.7652197971
149.0146718310 -258.4603213554 1848.0602584849
147.7860554526 -258.5800073060 1845.0293676435
148.0947108811 -258.4976537191 1850.9319950877
147.2590964259 -258.5896825004 1847.8256465921
146.5698115740 -258.6589547856 1845.9162482854
146.7280132325 -258.6129371851 1849.3160017129
145.4011765257 -258.7710972882 1843.2005197529
145.0190457684 -258.8104480858 1842.0488441565
143.8100493338 -258.8971913177 1842.1176359647
145.7671904516 -258.6423476444 1853.2572904119
144.8198616693 -258.7223043410 1852.1324649542
144.6967757317 -258.7160159944 1853.6261529980
142.0467260400 -259.0362340768 1840.9861446611
141.2266073620 -259.1088996297 1839.6735549873
139.1493829743 -259.2525907579 1840.3173980516
138.6855285551 -259.2760977468 1841.3048266475
137.3379504057 -259.3759158605 1841.0735476778
114.0449893298 -261.1820840563 1829.1302566169
111.6901010679 -261.3694023145 1827.4589898807
148.1068701150 -258.4617106627 1848.8637561707
146.4978735586 -258.6123656239 1843.3728942851
147.6427276907 -258.4989150316 1849.8506281876
146.1421017160 -258.6399756781 1844.5024043887
146.8982315467 -258.5605078836 1850.6460278010
145.6645108975 -258.6669967032 1850.1465596795
142.6145657338 -258.9528530296 1839.6227298040
141.9384387487 -259.0140079860 1838.2002138000
140.8389921759 -259.1073134227 1838.4100712488
140.2154935942 -259.1653927732 1836.4058779435
139.7733194757 -259.1983486464 1838.3684970229
123.1030247521 -259.5488119965 1841.1461699214
122.5278991680 -259.7923034083 1839.5917566940
122.0978562181 -259.8694197593 1842.8519187559
121.4805504049 -260.1642535137 1839.7725296973
120.6364039756 -260.5171425986 1837.6805576521
120.4971767583 -260.5401040416 1838.8205334051
119.1942527614 -261.0357500642 1837.6577151470
118.5780312616 -261.3531140846 1833.6125284475
118.0410738847 -261.5944396966 1831.5716131710
116.6000069840 -262.1355774282 1830.5829730250
115.9649183054 -262.3259918747 1832.1728069735
115.2145659238 -262.6396710612 1830.3132762666
105.9130157311 -266.3227946115 1815.9138799377
121.8139830369 -260.2840737160 1837.7892145857
121.7481069292 -260.2401193294 1840.9334841973
120.0968304510 -260.9438166457 1836.0982365709
117.5496572611 -261.9257290742 1833.4384156627
116.0607722503 -262.5673384932 1828.7489935366
112.6956206342 -263.8636004123 1825.2801399960
111.3694829622 -264.3561575010 1824.7597694176
109.4268064422 -265.0973022639 1823.0897685438
107.6191595856 -265.8591774732 1818.1886005475
141.6178792864 -252.8592303627 1842.9217022307
141.5518259545 -252.8581157496 1844.0543584101
141.1788846751 -253.0592458622 1841.1119784909
140.7608819083 -253.2677498339 1838.5761213241
140.4458660549 -253.1851587742 1847.4565371938
139.1614943283 -253.9199706529 1835.4262812825
139.4745378728 -253.6690243198 1841.5928055838
139.1227266240 -253.8339068801 1839.9358777717
139.3424312090 -253.6667950935 1843.8581179426
138.4189659403 -254.2084080253 1834.6104366134
138.5423919535 -254.1047455644 1837.2542340867
139.3337505583 -253.5609034063 1848.7672277748
137.7998635655 -254.3931829368 1836.4383894176
135.7445346315 -254.8994278072 1847.3318019026
134.9510655316 -255.1544685970 1848.8541628514
118.6488822203 -261.3664400215 1836.3740086434
117.9815023734 -261.6276756205 1835.5511545648
117.3712188354 -261.8736061945 1834.4815830709
116.1808769993 -262.3009034038 1834.7535389601
115.0113888215 -262.7814251099 1832.2877758883
113.5621601375 -263.4239784066 1827.1123314936
112.0201452389 -263.9714221516 1827.7389451047
111.6924036330 -264.1204423805 1826.4016279670
110.5559421212 -264.6015213931 1823.3695368056
110.0389975427 -264.7636174206 1824.5442494420
107.6308900566 -265.7478970234 1819.6996353766
107.1377387487 -265.9836027686 1817.1707876194
140.5950544224 -253.2564863649 1844.7567461403
139.6913984922 -253.7516286604 1836.7131991628
138.6988049580 -254.0847645319 1838.5752319179
139.0507557723 -253.7814887995 1847.3135193093
137.3031684112 -254.4357589147 1847.1532335805
136.3193397741 -254.7434522287 1850.1409843483
134.6861698181 -255.4044428089 1847.4756639937
132.9317884871 -255.9835566283 1851.2588558367
131.6609640227 -256.4737454915 1850.4107587487
141.1365818182 -253.1568709371 1845.7371810217
140.5457313304 -253.4903749635 1839.7563778898
140.6766696190 -253.3887761841 1842.5605755197
139.6606986680 -253.7212311520 1845.1471448444
138.9074529785 -253.9842631391 1846.1811049792
138.1498854225 -254.2308283223 1848.1809761024
136.5889071471 -254.8103730027 1848.4837303220
134.0500060353 -255.7367993075 1849.8408594203
132.6666578963 -256.2621054726 1849.4837948469
117.0962654632 -262.4164994750 1832.5537132256
147.2453041847 -278.7185515067 1837.7943644895
147.0774893868 -277.8572903884 1840.5012118925
146.2272010801 -278.0267373914 1838.6643635976
144.2037148857 -278.3947414421 1834.4139909532
143.9474481458 -277.6548693073 1836.5737921560
142.8042387523 -278.0569322076 1833.5064014749
140.7734828576 -278.2090718596 1829.9858391828
141.4932145609 -277.5977339896 1833.1458581967
140.6656450480 -277.7548224467 1831.3849539224
139.9013854499 -277.7309256667 1830.3384219451
146.8261808658 -279.6518289133 1837.5035603290
146.1021614394 -279.5899407066 1836.6139413748
145.7107708469 -278.2216795281 1840.6813246384
143.9088039695 -278.9168623752 1835.5735515938
145.0359961494 -277.5656395470 1841.8911040640
140.8788546098 -275.0011564662 1845.7524834748
136.6578782126 -273.7277486384 1843.0664445212
117.1013313887 -268.5428590760 1828.3416083338
117.3571060430 -268.2297767198 1829.7486870393
118.7427990927 -267.5729975697 1834.0575968074
117.4869619512 -267.5613229674 1832.0876273066
116.5028487022 -267.5023648934 1830.7027172462
114.9227153589 -267.9691672874 1826.6887839054
115.5777075167 -267.5546427965 1829.0573812213
138.9282382592 -282.3680800954 1820.1636907176
140.4625479196 -281.6890465543 1824.6761380793
139.4494413949 -281.9568690028 1822.2395748466
137.2508048668 -282.3575977599 1817.4946337726
137.5846069256 -282.1567670219 1818.6360640883
137.9184089844 -281.9559362839 1819.7774944041
138.2522110432 -281.7551055460 1820.9189247199
138.5879794520 -281.1462950520 1823.2905751872
137.9223416844 -281.1399767720 1822.2379347072
135.3755809492 -281.9508395095 1815.6989974967
136.1895860487 -281.5587276503 1818.1888346308
137.0035911481 -281.1666157911 1820.6786717650
135.4172364943 -281.5949162861 1816.8365481912
136.2845974871 -281.1815509690 1819.4762083051
134.4177966679 -281.7894287441 1814.6424773954
133.2179445162 -282.1316382952 1811.6815337333
132.8347192640 -281.5377629792 1812.8507207408
131.7305340008 -281.3668025970 1811.5872241369
128.8454808084 -280.5479005352 1809.4053915476
144.1756201291 -286.2643678770 1837.4416595816
143.2086113168 -286.1590586100 1836.0778187178
142.1451434383 -286.3651380250 1833.8333441977
143.6426458177 -285.5978152941 1838.0975505121
142.0043011430 -285.7809749048 1834.9504877781
142.5258930268 -285.4012371493 1836.6959129487
140.4797767649 -290.6013759689 1827.3191484668
139.2073470514 -290.7146055243 1824.8877848321
140.8303157758 -290.1407756911 1828.9514226222
138.4297232316 -290.5335982476 1823.9627033463
139.3801931314 -290.1683828850 1826.4078760754
137.3607077265 -290.0911226878 1823.1249975486
136.3271072007 -290.2710096526 1820.9529500134
141.0345989728 -288.8107083583 1832.2822054403
140.4260943247 -288.9290992685 1830.9754818917
139.2090850285 -289.1658810890 1828.3620347944
139.7621692593 -288.9239379136 1829.8508418056
141.0994621378 -287.9461225803 1834.3310719338
141.4719955180 -287.6898156520 1835.5430877079
134.2636330573 -289.7851627562 1818.5105882492
139.6521974132 -287.9024711657 1831.9521337120
133.5137194462 -289.6659316121 1817.4944650321
133.9616786817 -289.0343666894 1819.6766556185
132.0233349716 -288.4393312807 1817.6931685539
137.8897539989 -292.0291761075 1823.2475615360
139.9263710292 -291.3517885228 1828.3508289553
139.1750994057 -291.4338917082 1826.8365517862
135.7671090263 -291.4573587879 1820.7332753285
136.3169287074 -291.2227827717 1822.2244686071
138.1557430215 -290.3210118140 1827.4689610361
138.7698975350 -289.9964513141 1829.2718948126
134.6202319703 -291.0906952273 1819.5014481789
133.6371656012 -291.0293625526 1817.8903713204
134.7028129341 -290.6411580330 1820.6347331784
135.7684602669 -290.2529535135 1823.3790950364
134.9638014898 -290.2093095562 1822.0460040703
133.2974475558 -290.0681850410 1819.3966994409
132.1213766895 -290.2768058173 1816.8504010887
130.8688743193 -290.2248953376 1814.7401909414
130.9284109325 -289.6405740298 1816.1283779428
131.2391374155 -289.4063832377 1817.1941537313
130.2487725939 -289.4888716473 1815.2544590722
138.3030633132 -286.2401848548 1836.6871367569
140.7925244035 -284.2947479761 1845.3776519656
136.3346325893 -284.9850247730 1835.9464938474
140.6239154975 -283.4950802661 1846.8333481779
136.9836326784 -294.8542537246 1827.6580295210
136.4062936263 -294.7949513603 1826.6667581092
137.5303290372 -294.4022089560 1829.5613142524
135.1355405165 -294.9321014504 1823.9768331374
134.0019733622 -294.3617769619 1822.8920730917
133.2522869176 -294.2770128688 1821.6196142110
139.1166874461 -290.9068931014 1839.2288702764
133.1362021215 -298.2879509132 1831.5170847854
131.8341810134 -297.4825107923 1830.2214230042
131.3772656799 -296.6107875418 1830.7505572303
134.1096319991 -292.1729431985 1843.7042210169
131.3057225489 -297.6884552392 1833.3143148664
133.9055569970 -295.0719037537 1843.0383954251
121.1115405630 -304.9515064478 1813.9002861702
120.3517998083 -304.5745687199 1812.7850259981
119.4176258244 -303.8499660394 1811.7964456942
124.9832562914 -301.8180643075 1826.9921808903
126.5529755491 -300.8680592310 1831.8304427029
126.8861485551 -300.6431778706 1832.8914320655
118.8735488393 -305.6515030907 1812.1700469713
118.9819325449 -305.0826186389 1813.2033680473
123.3482761568 -304.1147853454 1824.1158331469
119.6841505946 -304.1485946942 1816.0475759964
124.0504942065 -303.1807614008 1826.9600410960
119.9213227142 -303.6290005072 1817.2938471358
123.8611697007 -301.9773314674 1828.2296108390
124.2958345792 -300.8691011287 1830.7319064238
125.0669829850 -299.5306122613 1834.2929910111
125.7680709784 -297.4292808482 1838.7681876795
120.4554685404 -305.7615524265 1821.2355670596
119.4898004627 -305.5612494339 1819.3542748663
121.0353488331 -304.4961003569 1824.2852022173
117.4218195549 -305.0328114655 1815.4633231630
117.8795140378 -304.7913823727 1816.8210262288
122.1945767006 -303.5047894012 1828.2501838198
125.4281550426 -301.8091058960 1837.8284087998
125.4284214015 -301.0393093042 1838.8955531563
115.0778862107 -306.8909708247 1815.3943145000
120.6453852180 -304.8126012590 1830.8508646890
115.1732937833 -305.3945079465 1817.5776928950
122.3912142616 -303.3888374143 1836.7115603030
119.7470658635 -308.3352422029 1830.1148749470
120.5307794796 -307.8488979331 1832.5321230951
121.4748951800 -306.7721844402 1836.0460235930
114.2008544034 -307.4647322789 1818.2966718489
121.9746342223 -305.6323289128 1838.6049189894
114.3553354343 -306.7962325298 1819.4753809175
121.8629038393 -304.5447094839 1839.6791051499
121.1649275038 -304.6155693859 1837.9705722062
115.3393592483 -305.4727115900 1823.3846673769
121.6291402263 -303.0069307027 1841.0218079154
120.7752662356 -306.1807566590 1835.4312538692
118.5202843877 -306.4606081180 1829.8545830684
116.1955517568 -306.1145301406 1824.8529402249
114.3610012745 -306.1368072120 1820.5579674227
122.2231582595 -304.2413953889 1841.0848019282
121.6252512093 -302.2125744830 1842.0834553670
122.0087065778 -300.0374378736 1845.5379517332
117.0879057121 -307.3769773222 1825.5979986284
117.9916392513 -306.7048898347 1828.3735825329
113.5261889091 -307.5755152675 1817.3120926603
119.6170372907 -305.8254484601 1833.0089881816
120.2112372583 -305.4072664877 1834.8082456898
113.0660651301 -306.5529448108 1817.3766262848
113.1455368122 -305.7877540673 1818.3852194932
120.9758624007 -301.3108189441 1840.9763238676
118.2820278412 -308.3100919443 1826.6475512196
117.1415046759 -308.0682477992 1824.2923559051
119.3068771064 -306.8419160488 1830.4941958211
119.6982520446 -306.3930860383 1831.8483537141
121.4954554966 -305.4425338639 1836.9266606716
115.0450638974 -307.0311651581 1820.5714760876
118.1762653166 -308.6082601711 1828.4050292972
118.0709035337 -307.4575797264 1829.1600123311
118.4880561752 -306.2971331586 1831.0983549454
115.0546635045 -307.2210687444 1822.5814835353
119.2638037799 -307.9160446257 1831.8602093400
118.6906341866 -307.7788501699 1830.6755797124
119.5155707256 -307.1457492456 1833.0446490057
117.1656412559 -307.6387692603 1827.3438603328
115.8177552489 -307.3507445043 1824.5303728824
120.4560127833 -305.4501877140 1836.5240592499
116.3561069912 -306.6490463521 1826.3071273619
111.8192930328 -308.0028757616 1814.9796645612
113.0228833159 -307.2354668354 1818.3111939789
118.3126468623 -305.3654730018 1832.3407548145
112.2328722015 -306.9908104185 1816.7025328891
115.1814386211 -304.5538298846 1825.2828946736
114.0271932032 -304.2953051986 1822.6566111011
118.4163567261 -297.2518022267 1837.4929648009
120.6742488773 -289.5415191519 1847.5944313209
116.0648806656 -308.2068874168 1828.4373613526
114.5012063255 -308.5050543528 1824.4872076841
114.0740598253 -308.4019979914 1823.5111957036
115.1060897598 -307.9530484635 1826.2591381213
115.4075829167 -307.4235304209 1827.2843944925
115.9565885192 -307.1451007944 1828.7683266927
116.4487677297 -306.8867323329 1830.1035518084
113.0098224539 -307.8469177097 1821.2460643544
111.8612940547 -307.5754442734 1818.6185812259
116.6053492258 -305.6468219085 1831.1749139266
115.9960101027 -299.9387683260 1832.8884009496
116.4679824355 -299.3490667887 1834.3597785740
115.9972457753 -295.1997994421 1835.5380714938
113.3888063702 -308.2386131988 1825.9389342512
114.4428878842 -307.6232740078 1828.7429167179
112.3156570989 -308.1014968063 1823.4751023360
112.6584131080 -307.8150070509 1824.4311014012
115.4270091454 -306.4416422008 1831.6715824918
114.0878098471 -306.6489826716 1828.4032040265
112.7119439901 -306.7002582115 1825.1281332592
113.2298181074 -306.3535723832 1826.5284514171
114.6416160451 -305.7839386565 1830.1537111889
113.5868000532 -305.7248547295 1827.6932254246
115.1445297477 -305.1050576087 1831.6887511069
115.5089919008 -304.6424375647 1832.7861642344
109.3540446267 -306.5051700378 1817.2990107229
110.0171160229 -305.4338976976 1819.4130914937
109.0973787158 -305.4127155209 1817.2521646089
108.5570639765 -305.2611085198 1816.0539290913
115.6018277283 -302.7551677842 1833.9714530080
109.7421168326 -304.2634107153 1819.3628992287
110.5541987556 -304.8082167424 1822.1256973614
109.0623804825 -305.1460423755 1818.5008076239
110.9416995520 -303.6673751904 1823.5573781212
108.4345884676 -305.2046001852 1821.6669561131
108.9927155169 -303.6827543969 1823.4113536912
121.7877245882 -284.5773721132 1857.8960981312
121.5576008633 -283.1968886216 1858.6554912513
122.2970777862 -282.4652956625 1860.4366109001
107.0631495184 -306.7923512971 1829.3181682427
107.7321013128 -306.3665718442 1830.7336862785
105.5849229684 -306.1244932762 1826.4465345935
110.7049887181 -304.7474663606 1836.9808725396
109.7553498815 -304.9209133876 1835.0400857340
108.8057110449 -305.0943604146 1833.0992989283
111.1905700194 -304.2890482739 1838.0321713535
106.3911522716 -305.3339710370 1828.1967298143
105.6812380733 -304.7873000215 1826.8536352156
111.5675721665 -303.2041874451 1838.9645407454
108.5977713334 -303.9209512143 1832.8673484916
109.5525407505 -303.1724351390 1834.9101007714
112.5387347691 -302.2873512717 1841.0671383732
105.0041102460 -303.9039888097 1825.6302313131
115.7994838053 -300.6727818318 1847.8935303450
103.9991598282 -303.6005781325 1823.6539940631
104.5031783232 -303.3011126139 1824.7171096918
108.8096037821 -303.7607770010 1834.1546742154
105.7488751575 -304.3434316702 1827.8148286110
106.9403858791 -303.5302310666 1830.3628187710
110.1661569385 -302.4938914853 1837.1021010518
109.7009488806 -302.4561394690 1836.1557139626
103.4788635753 -302.6669943729 1823.4003377031
106.4001597137 -305.5994985008 1829.6888284659
107.1601673434 -305.1487980529 1831.3265175059
104.4811739236 -304.8939835365 1825.7712152395
109.4853198697 -303.5394946707 1836.3640163626
103.6523043510 -304.6283631287 1824.0744621801
107.2190429855 -303.5812798755 1831.6341860278
107.6386325236 -303.2227215273 1832.5512763519
108.8863133097 -302.3950343113 1835.2501754592
118.9508820326 -281.3784874755 1858.7128532118
120.4181163276 -280.6546974120 1861.8572368863
119.8684542307 -279.6602052550 1860.8285811922
118.3212701646 -279.9156622913 1857.5727616332
105.9633790891 -304.2272019489 1829.5309441014
104.9335624616 -303.5293192256 1827.3418202186
105.5868598678 -303.2714628745 1828.7867069216
107.9033042531 -302.3202142039 1833.9129084587
106.6588057598 -302.3310863397 1831.1989667009
104.2334627672 -302.7423512424 1825.8786355299
107.4915239457 -301.7807213385 1833.0584418651
108.2276164444 -300.8497442322 1834.7377707655
107.6877964310 -300.8329089852 1833.5622846851
103.6943744720 -301.4238171149 1824.8090642473
107.2760161236 -300.2934161198 1832.7078180915
108.2574727886 -299.0521133114 1834.9469232920
116.7349739401 -265.6644474580 1872.8527415084
116.9134006677 -264.6518960036 1873.5180068850
119.4571517408 -256.9249126283 1890.0804206176
116.3561827056 -265.5007635251 1868.9997193766
116.1949323802 -265.9274814685 1867.8832382550
115.1121169655 -268.3013205804 1859.8672307263
115.3300733577 -266.9322552597 1860.5404143959
120.2180258522 -251.1896945373 1891.4219346931
120.2146225668 -249.8944765438 1890.0223102145
118.1636142624 -260.7337840435 1883.8242819935
116.4217324509 -266.0692074085 1871.6520192568
