92.8828010352 -200.1331717115 1508.6970613543
102.9734738679 -196.0773697626 1509.5815705436
100.2492649103 -196.8075331816 1509.3996804547
91.2886993688 -199.8206467290 1508.7060245813
104.1772708922 -194.5785253512 1509.8454180361
102.5539838644 -194.6192130031 1509.7985558196
101.4523356050 -194.8818131941 1509.7300973795
104.3392430390 -193.4896070140 1510.0193191109
102.5073005039 -193.4415296504 1509.9810953837
103.4878493401 -192.0305265406 1510.2256686438
105.2877011953 -190.7243142343 1510.4743446569
104.7193790664 -189.3247183426 1510.6784804446
106.1325579276 -188.3415145229 1510.8671200153
106.6819293981 -187.3564632753 1511.0344881001
105.6386518614 -186.9126381974 1511.0776805471
106.9008196084 -184.7073685171 1511.4531789267
105.5591514914 -183.9537895986 1511.5372418296
107.0168347243 -182.8676424033 1511.7430501332
105.4971491206 -182.5258369870 1511.7584381044
106.9234680032 -180.5122756979 1512.1081292616
105.9524275403 -178.7585434579 1512.3574547499
105.9940265935 -176.9480977780 1512.6409012123
105.0988548526 -176.0188362562 1512.7635125800
92.5820621104 -198.5569187241 1494.9059270746
96.9736791360 -195.7806134805 1495.5819105554
98.4360062906 -195.1387554137 1495.7568462522
99.4666682682 -194.4915140353 1495.9147241284
102.0207159710 -192.9244693604 1496.2994138045
102.7124595177 -191.6422440648 1496.5558421121
104.9434328774 -189.2643877849 1497.0709482942
104.9731836501 -186.5363669672 1497.5563435393
106.7408036571 -184.5047827513 1497.9906597516
105.5045489157 -184.6360531083 1497.9157741975
105.7715806279 -182.0723479363 1498.3819092696
106.8204044741 -180.8239133484 1498.6472414154
105.8148577076 -179.5938649524 1498.8235823941
106.8659993347 -177.9200648429 1499.1645027350
107.4402613021 -176.3429989637 1499.4683552266
106.1000512884 -176.4289665709 1499.3971717359
106.2403302980 -175.2718829017 1499.6083782117
106.1004316664 -173.6272356073 1499.8944230270
94.4375287141 -196.6215311923 1492.2230437852
102.5221965909 -192.9630127375 1493.2068371704
97.0258932988 -194.9080080417 1492.6469232146
98.1207386266 -194.4195841831 1492.7787405434
92.3314069310 -196.0517019616 1492.2726483575
100.9866242225 -192.0983270815 1493.3332349920
101.9558475665 -191.0667952229 1493.5702730131
104.0948156544 -189.5191870152 1493.9469889459
104.5660201293 -186.9872726393 1494.4700592916
105.0945164327 -184.6026312661 1494.9653124631
106.0261557310 -182.1533639417 1495.4859599614
107.2024697358 -181.2138001049 1495.7109019739
105.7352275226 -180.7449494461 1495.7598962773
105.4090841390 -179.6863859368 1495.9624770793
106.8849958084 -178.6362121380 1496.2188614230
105.4574378361 -178.4895599751 1496.2043607952
106.5191681839 -177.2554501328 1496.4849371561
105.4153847247 -176.3997750271 1496.6228207174
104.8776816146 -174.5771940139 1496.9723479730
104.6330069081 -173.0674905264 1497.2680534588
105.3488860894 -172.0452796379 1497.4954183187
104.8619055469 -170.7934591151 1497.7318642992
97.5820789869 -195.9360195042 1491.2149577927
101.2970564264 -193.3741394441 1491.8209824435
98.0950379774 -194.3974206104 1491.5390633587
99.1261930667 -193.0871082634 1491.8288668532
100.9923453169 -191.7187135820 1492.1498260896
101.6491579051 -190.5477257081 1492.4026745949
105.3700187472 -187.5625048389 1493.0947383020
104.3970513913 -186.8296353441 1493.2208786770
104.9848788820 -185.2631715556 1493.5523752408
105.9074807902 -181.0452033337 1494.4296701339
105.1362316182 -179.7318761419 1494.6782739709
105.9892021347 -177.3086582553 1495.1897702287
106.0300628069 -175.4403857161 1495.5698202761
106.1055776014 -173.2222945717 1496.0216579677
104.5163351825 -172.8872535365 1496.0527765380
105.8757349922 -171.5390038149 1496.3578926117
104.3842483903 -171.6729608982 1496.2961117113
104.9779592837 -169.6831563006 1496.7136473314
104.3737741734 -168.1391900170 1497.0129269862
93.0557482735 -196.9079821925 1489.8909525881
98.6102973350 -194.4187710212 1490.4277986629
93.9230740048 -195.8294093005 1490.1232375003
101.5766719351 -192.5581275047 1490.8288279481
102.8974866343 -191.9820782080 1490.9530716004
100.0914768451 -192.2721289089 1490.8900538599
102.5257036646 -189.2667827334 1491.5372985889
104.9209238758 -187.7028775763 1491.8743500693
105.7774940601 -186.3765047620 1492.1599569467
105.4984954338 -183.4587678808 1492.7877673583
105.2803373080 -181.3577203762 1493.2398467478
106.3940722264 -180.6909540479 1493.3835674841
105.1368224150 -177.4662112275 1494.0772330625
106.4146149261 -175.8989622413 1494.4147645751
105.7503533958 -174.6356114568 1494.6864836876
104.1078406804 -173.0652547331 1495.0240579669
103.8362276175 -171.4877381671 1495.3634668415
103.5861256487 -170.4058214459 1495.5962317859
91.0998346424 -196.8002116674 1489.1205531910
96.7043597888 -194.2181386223 1489.6819379460
98.0155618464 -193.3966899534 1489.8621692283
102.3603151336 -190.4448911641 1490.5110849969
106.5336256026 -184.6264883044 1491.8054033849
105.4238629006 -184.2010965792 1491.9049359585
106.3441206732 -181.9340281487 1492.4116969934
105.4253882039 -180.0144966524 1492.8466565492
106.1206322409 -177.8309271936 1493.3354152440
104.7102358090 -175.0891961329 1493.9570226245
105.3797647468 -173.5012138806 1494.3119001714
105.2242433205 -172.2193945244 1494.6007691380
104.6548186448 -170.7562852818 1494.9318514460
104.6312442646 -169.5929438593 1495.1936129618
100.0737599667 -191.8360071871 1488.5450476520
98.7588249063 -191.9826836044 1488.5338730723
103.8403481100 -186.9021941910 1489.7316345288
106.3866851330 -184.1527128783 1490.3839254711
106.5901192513 -180.4318510569 1491.3316317907
106.5204952404 -179.1310343343 1491.6657706105
107.0136155320 -177.9570951642 1491.9561800770
105.4089550105 -177.7947199575 1492.0298643524
105.2864528961 -173.4464411807 1493.1445916336
104.7293036588 -171.9913915086 1493.5279502002
104.4618798824 -170.8453934606 1493.8264499118
97.6504494088 -194.1277136971 1486.2080326037
100.3948774980 -190.7978565175 1487.0106692670
101.5322324133 -189.3020876301 1487.3731532416
104.7347246284 -188.0434912177 1487.6325101615
103.3457568925 -187.5580926568 1487.7858828634
104.6987202654 -186.3978797714 1488.0574777720
105.4720795555 -182.6304340929 1489.0129959555
106.0175520106 -181.6007732982 1489.2673511335
106.0597988247 -176.6087776067 1490.5534196643
105.0477293368 -174.6579542372 1491.0769138429
104.4962209552 -172.1233487798 1491.7415427347
104.1975738844 -170.2423893433 1492.2325221783
96.7677710003 -194.3005706912 1482.5222314710
93.2190782948 -195.1066312899 1482.3725380700
99.1238858044 -192.8535129662 1482.8547591584
100.6538870913 -191.7100630946 1483.1227912404
101.4703202755 -190.4967712486 1483.4200189326
100.2213632380 -189.7104502791 1483.6409039717
104.0138688651 -187.9845654675 1484.0218937937
101.6291387776 -188.0307662429 1484.0479769247
102.8305455812 -186.9250573056 1484.3115814355
105.5714211469 -184.9214849753 1484.7802786624
103.6093217221 -185.3935170595 1484.6907738698
106.5757138321 -183.9712401014 1485.0072680864
104.6041469320 -184.1976857070 1484.9807026595
105.3829230729 -182.6661454609 1485.3598950938
106.6407090125 -181.7057603667 1485.5854488520
105.5419544327 -180.8642379693 1485.8180603649
106.6964495755 -179.8587916675 1486.0567762625
106.2172269190 -178.6235390016 1486.3802076597
106.8929251208 -177.7110350619 1486.6027695124
105.6252459905 -177.0976386495 1486.7797405621
106.7887828931 -175.0095837981 1487.2951025360
105.2960129341 -175.1430870415 1487.2846911540
105.7367271164 -173.4037012511 1487.7223953830
106.0646830266 -171.3736677747 1488.2362011172
94.0205854783 -194.5799593342 1480.4191275458
91.7202230295 -194.8408441324 1480.3770655696
101.7663879025 -190.0041247855 1481.5169692657
94.6964256076 -192.3417664249 1480.9905004504
97.6633313280 -190.9245159151 1481.3242577327
99.1936938961 -189.7839497589 1481.6023260646
102.9586602381 -187.9917770489 1482.0242304661
102.8176758627 -186.3012827004 1482.4629803752
106.3009570669 -184.4462513517 1482.9042523935
104.0569429902 -184.8524330800 1482.8239916059
104.9300024217 -183.1227794258 1483.2616686705
106.4227805009 -181.6641399790 1483.6224116901
106.9390425395 -179.8991071167 1484.0731793066
106.9201652111 -178.7446314538 1484.3719563109
106.0750530752 -177.8924295262 1484.6016856017
106.8542930910 -177.0266576748 1484.8169832849
106.7227190185 -175.5815881518 1485.1921579120
107.5019590342 -174.7158163004 1485.4074555952
105.7648534158 -173.7751663524 1485.6699112658
106.8821269414 -173.1175500697 1485.8276425208
106.0088406194 -172.1926996770 1486.0764712173
107.3514509107 -171.4526451029 1486.2530336668
106.6752704458 -169.7090819421 1486.7114194039
105.7080512629 -168.3208613288 1487.0811215995
99.9274083805 -189.0893980245 1475.3772564379
99.5957324719 -187.5569039085 1475.7943041949
104.6834409118 -183.4279724654 1476.9221994157
106.4219928814 -180.8257046355 1477.6320118116
105.2878977969 -180.3228127087 1477.7681366041
106.4832210106 -179.6481428363 1477.9526947077
106.9679672423 -178.2367324541 1478.3373541911
105.6639157958 -177.9596548052 1478.4118707313
106.4942034311 -177.0026459405 1478.6730470566
106.0204396200 -175.7685594268 1479.0087399221
105.2819941784 -174.9592255927 1479.2285879410
106.7030106732 -174.2039280910 1479.4352610186
105.9088283127 -173.2494076082 1479.6946023158
105.3793275825 -171.8701344459 1480.0697884596
106.2374836774 -170.9857189055 1480.3112181458
104.6993646651 -170.5446130365 1480.4302312874
106.4213055345 -169.6818120291 1480.6663909971
104.8553180627 -169.1681128357 1480.8051507779
105.6967255880 -167.7943855964 1481.1798036150
104.7604553249 -167.1382727159 1481.3577900207
92.9616624194 -190.3501637880 1468.1021423354
95.1212319816 -189.2990269302 1468.4586348781
91.3709785003 -189.4966409904 1468.3246697934
92.7043654372 -188.9675761241 1468.5090346232
101.3310463850 -185.4197788696 1469.7390460479
102.7261146533 -182.9930472230 1470.4901937615
105.1856755754 -179.3114132225 1471.6366398466
108.4343349429 -174.5489008652 1473.1210083989
107.0049875937 -174.1308805602 1473.2169757318
107.3304658325 -172.7159399592 1473.6451757739
106.9002349794 -171.5545999791 1473.9826694407
106.8121770419 -168.5646805301 1474.8719711956
108.4325554883 -167.2048414903 1475.3096706756
107.4580361437 -165.4916880197 1475.8007219799
107.3365888526 -163.3290463066 1476.4428076428
90.6126703132 -187.7382389942 1462.5075456184
92.0889406280 -186.6795903011 1462.8687587510
102.0496460793 -182.4186006927 1464.4819170725
104.3974228207 -180.5004096197 1465.1234415858
106.2561452414 -179.5612533406 1465.4656484593
105.1177382753 -179.6906438181 1465.3835275285
104.8641037623 -178.3017055265 1465.7706084953
106.8160043703 -175.5322204598 1466.6398488295
106.9267652590 -171.8964511738 1467.6838030319
106.4728763409 -169.2646049709 1468.4183268755
106.4238129078 -167.9719204814 1468.7859951903
105.8099416670 -166.2925711060 1469.2418332251
105.6140039368 -163.9030090857 1469.9173063267
97.0852395177 -186.6568568436 1462.0106201883
91.8870694954 -188.1839619419 1461.3514495930
93.2452728937 -187.4974444298 1461.6072516652
90.7710409171 -188.1387784062 1461.3183627785
99.5216977636 -185.2116179477 1462.5316179336
100.1384316876 -184.1132611817 1462.8764224243
98.3716610793 -184.6061614436 1462.6599787598
101.6291368542 -182.1593744068 1463.5061017919
105.5221746762 -179.8323903600 1464.3437232253
104.2208081005 -179.2761433627 1464.4515128455
105.2197498622 -176.6659801885 1465.2515874536
106.5249995469 -175.8334445445 1465.5476399357
107.2288127749 -173.8089642863 1466.1652496960
105.7609363248 -173.9598135834 1466.0606096615
106.5518288569 -171.0092098329 1466.9510246913
105.7385775459 -169.2331926911 1467.4335836091
105.0691248771 -166.9207021402 1468.0780361687
106.4273282754 -166.2341846281 1468.3338382409
106.1058403694 -165.1144438856 1468.6460019182
105.2319866112 -164.3375593020 1468.8356303615
104.7818800459 -163.0964051810 1469.1777588456
104.9900467600 -161.8044311648 1469.5619217441
95.9171417371 -187.0417381931 1459.9105930373
100.3106821657 -184.9028512443 1460.7563712202
94.1199299796 -186.4531070819 1460.0033413812
102.3952157396 -183.3819698849 1461.3093573540
97.0409336521 -184.9217419943 1460.5984269479
104.4915163984 -178.9450637484 1462.7370068728
106.2955922888 -177.8326804063 1463.1544788367
106.2562779230 -175.0130190928 1463.9978770439
107.3240854353 -174.2043966813 1464.2900026997
107.2047168270 -172.3797877898 1464.8313929863
106.6275763435 -170.9364459411 1465.2371739039
105.8038539202 -167.7879028275 1466.1426264714
106.1162261667 -165.7517096575 1466.7675492304
105.2085271393 -164.5702272249 1467.0794394157
105.7193416462 -163.6065925890 1467.3920911933
98.8339631628 -186.0948492688 1459.9595870592
106.1608987716 -169.5336132969 1465.3090225787
106.1982140544 -161.4467847738 1467.7533498668
105.7521966506 -160.1262604720 1468.1310645996
94.8865331441 -187.3954160668 1459.4686716984
92.7064994649 -185.6135383048 1459.9029864429
100.5313196413 -182.6846612603 1461.1547022052
102.0831429622 -180.5389413283 1461.8746223698
103.0378390594 -179.3735916175 1462.2708892998
104.3535834415 -177.7804251135 1462.8131296762
105.1381936300 -176.1004718891 1463.3564891360
105.6416662085 -172.8098293025 1464.3720864715
105.3397100229 -170.8827878494 1464.9386973167
95.5682920434 -186.3971515155 1462.7583302538
96.7579470549 -185.9474256454 1462.9496809221
101.4119957260 -183.3746404351 1463.9591215737
102.9232144169 -180.9706005763 1464.7899498984
86.6418936227 -185.6993896342 1462.6284992087
87.9834615644 -185.2025324101 1462.8409823923
85.5498882010 -185.2318617059 1462.7351758378
84.1284084883 -184.7859214480 1462.8218779826
86.0776281511 -184.1005388076 1463.1188912272
106.3284006039 -176.7694648430 1466.2721241464
84.4016417861 -183.4110297535 1463.2736230420
83.3846040031 -182.6783453584 1463.4683038252
81.9660907698 -182.9571774698 1463.3226922804
107.2063191433 -174.4812753629 1467.0407129563
82.5934579626 -181.3917823526 1463.8495591743
80.9717349380 -181.5723957430 1463.7273962069
107.6068057672 -173.2281680665 1467.4584431807
106.1103584159 -173.0473842755 1467.4571411714
79.2404964061 -179.7711734548 1464.2364607003
107.5170057318 -169.8694626870 1468.5320074743
79.8925232031 -178.0368625853 1464.8184749443
78.5677042538 -176.4320777393 1465.2806422830
77.4756988321 -175.9645498109 1465.3873189121
107.1480394400 -166.4361042633 1469.6184540876
76.5099579102 -175.3772154909 1465.5374186027
76.6569267082 -174.1221301880 1465.9457406005
75.6369224459 -172.6646734236 1466.3727350732
74.6938634752 -171.4252417719 1466.7328579070
95.0540954873 -187.9754260503 1465.0944576106
96.0154804325 -186.8304164912 1465.5317265931
88.6046960305 -188.2381602388 1464.8305440117
99.7851235041 -184.8031090653 1466.3602317766
103.1480960916 -182.8130209413 1467.1646641391
88.2118707111 -186.2940577216 1465.5197959021
103.5207299651 -180.6499857649 1467.9527991300
106.4389214114 -179.3407729620 1468.5005439074
84.3505381359 -185.2629051433 1465.7894425696
83.1160323092 -184.8250473235 1465.9145818314
106.8786546911 -177.6331132175 1469.1265782128
105.6920306396 -177.3397494532 1469.2009800161
106.4956004897 -176.4771607748 1469.5324778807
81.7803904657 -181.8059981974 1466.9658839486
79.9574581722 -181.6155335328 1466.9865480008
107.8053538160 -171.8314502393 1471.2385918014
106.6379473955 -171.8489678515 1471.2016303777
79.4928101901 -179.4546899326 1467.7519060790
77.6172728649 -179.3583655615 1467.7373130918
107.0776806753 -170.1413081070 1471.8276646832
76.8083305484 -177.9287510441 1468.2305031657
107.4169271482 -168.3832946008 1472.4691794078
107.6937974714 -165.9312713137 1473.3587893157
75.2906081173 -173.8544569988 1469.6567441124
106.5786714777 -164.5892298601 1473.8124261494
74.1660356105 -172.9896842429 1469.9383919506
105.8702159680 -163.2099691044 1474.2901358041
73.5533436512 -171.8994115980 1470.3146266883
106.7118964753 -161.7037244070 1474.8542484327
105.7738032078 -160.3901434491 1475.3022931573
95.8350161320 -188.7954704036 1469.1386476045
96.7470812665 -188.1247456830 1469.3328683629
97.6240655139 -187.3056104966 1469.5769805147
88.6153564691 -188.9119873210 1469.3110697693
99.9096297865 -186.1742537857 1469.8827725446
86.8127940134 -187.9058602939 1469.6949857706
88.3859756019 -187.2447809171 1469.8667284150
102.0629631819 -184.1350886399 1470.4913395939
85.6200817815 -187.3893012884 1469.8998961582
86.9665927040 -186.4660922605 1470.1645682693
84.2357797708 -186.7590230975 1470.1478446193
105.6248766027 -181.7837019696 1471.1615865215
106.1186812923 -180.7371284127 1471.4917748201
83.1806808864 -185.4310292021 1470.6159186128
104.9178763889 -180.5347359789 1471.5934757613
106.9349515374 -180.0095440995 1471.7075146153
84.2060813539 -184.8913693070 1470.7636746379
83.1078089109 -183.7291315177 1471.1784305782
108.0534366932 -178.1216670441 1472.2964807826
106.1402491056 -178.3895519444 1472.2641323383
81.2985088843 -183.7397094388 1471.2277725436
108.5377936107 -176.6867216825 1472.7548242243
106.7028604690 -176.9372609426 1472.7259024399
80.4525402224 -182.5996399615 1471.6278627670
81.1554751344 -181.7409908228 1471.8900672956
106.8485664881 -175.8116594809 1473.0922754922
79.6848260063 -181.4422248440 1472.0313796503
78.3868711129 -180.4804344411 1472.3859642177
79.8993386991 -179.9109059374 1472.5293345056
108.4001423312 -172.9687597418 1473.9830576016
78.6270169208 -178.7091541957 1472.9621828228
77.0700206753 -178.7419004289 1472.9968590712
107.8051223499 -171.1483202002 1474.5998466976
78.1547800446 -177.4081512842 1473.4043520423
76.4844484661 -177.3098326920 1473.4854930241
77.9874682802 -176.3519323836 1473.7570184550
108.3151123825 -169.4734134997 1475.1364538890
76.6638802717 -175.6301033196 1474.0333392726
75.2444973737 -174.8514146630 1474.3311791270
76.4695802917 -174.1113073814 1474.5391065250
76.1457596356 -173.0897797613 1474.8849196179
74.8113687544 -171.2770405162 1475.5207601681
88.5319206384 -190.3965458455 1477.2091285206
87.4725083460 -190.0826596511 1477.3552132791
86.4328226560 -189.1371617694 1477.6971316447
104.4820799343 -183.8799000439 1478.5114911505
106.3442537889 -183.3885207098 1478.5796179250
105.1723179031 -182.9427796698 1478.7719043964
105.9507226692 -181.6724880679 1479.1320722384
107.6003291922 -179.8953713969 1479.6103726023
106.5777535509 -179.0244836301 1479.9282712152
107.3956115219 -176.4909686538 1480.6801062717
76.9019344056 -180.5878014879 1480.7947411032
108.5904934778 -173.0897948399 1481.6850034037
76.4715666347 -179.4287704183 1481.1753815622
108.6470567314 -171.9011815803 1482.0526508653
76.1195023598 -178.2523739645 1481.5578598137
93.0242120936 -192.2794742412 1476.6755173295
89.8242032774 -192.6799394047 1476.7028599721
96.6002200415 -191.0092850806 1476.8956098896
97.7323337797 -190.2063956223 1477.0873918439
100.0327469902 -188.0425161883 1477.6393068621
101.1114785071 -187.7229942946 1477.6863096846
102.3295746803 -187.2937695996 1477.7602317485
103.8969788746 -186.2365046899 1478.0091994493
85.3883709787 -190.2134809321 1477.6613663146
102.7684506570 -185.6242613028 1478.2484076270
103.8394803105 -184.9135897215 1478.4149439714
83.1408091672 -188.6725774229 1478.2357442139
82.2163152112 -186.4432805121 1478.9581073748
106.5022816864 -180.3901204923 1479.6688563023
107.7067668932 -178.4710299993 1480.1973404762
79.7700974189 -184.3967312586 1479.6958154887
108.4836635071 -177.1974646453 1480.5491053816
79.3134941329 -182.7700912243 1480.2127253741
77.2112060808 -182.2182010242 1480.4789939270
108.4279577032 -175.1669832543 1481.1703449697
107.6831304808 -174.0761655577 1481.5374548280
107.6025263265 -171.5798015263 1482.3017999162
108.5608824343 -170.7371489641 1482.5138065849
94.5700430695 -194.8351205363 1486.5448424008
92.9995628107 -194.0884486742 1486.8574333137
99.5828308436 -191.9294308437 1486.9780799936
88.6508538700 -193.4299694674 1487.3417657139
87.0540360310 -192.9273305341 1487.5901851623
84.5292621885 -191.6085377128 1488.1247573128
83.3750452523 -191.2413367467 1488.3053709364
81.7354732154 -190.1934198600 1488.7043314375
80.9465570949 -189.2657563954 1489.0108650833
80.8873862791 -187.9311675599 1489.3761186532
79.6640775647 -187.2627215692 1489.6431018651
108.3656107110 -179.9816413889 1489.5923278875
78.8315509195 -186.5037797772 1489.9070564435
80.1083911210 -185.9701602845 1489.9615362807
77.4782669577 -185.6274991782 1490.2394225733
108.5154278832 -178.1227883754 1490.0847129330
78.7386905413 -184.3045688034 1490.5086149277
77.4454337221 -184.0488774140 1490.6688476077
108.3789569803 -176.0922990742 1490.6436923498
76.5438152987 -182.9886905974 1491.0191717743
107.3728445629 -175.2942443465 1490.9304507786
76.1292646295 -181.1812204495 1491.5373893038
108.2951612377 -173.5737439155 1491.3310146955
107.2454382956 -172.9444108604 1491.5751940569
107.7432833389 -170.4497840923 1492.2150915216
94.0723946946 -198.7441794484 1495.9257713823
96.0322335594 -197.5770365808 1496.0271128278
90.4018754805 -198.4737551833 1496.3458945974
93.5885653897 -197.6613402045 1496.2411747961
98.8681288793 -196.2880432505 1496.0744646531
88.3155973207 -198.3166603685 1496.5855289911
100.9060974819 -195.1029337397 1496.1727539944
86.5201918132 -197.6150366689 1496.9324017040
101.9898798919 -194.0576413346 1496.3280850602
87.6206035626 -196.6455268753 1497.0673162964
101.0090304409 -193.3279164271 1496.6036037837
84.3573623768 -196.3610520062 1497.4517625168
86.4336066178 -195.7243874193 1497.4101886486
101.2616274549 -192.2349426184 1496.8507053123
103.1050609437 -190.5373214699 1497.0949620717
83.2883492693 -194.8555343401 1497.9283938700
84.5217957342 -194.4922854389 1497.8999766752
103.7316773071 -189.2787318341 1497.3472195524
82.4305006150 -193.9383109233 1498.2386413317
81.2086665301 -193.9804627352 1498.3456723158
80.3009298575 -192.8358914837 1498.7171691977
106.8317820209 -186.5756676059 1497.7202866957
79.8136620544 -190.2413160480 1499.4082771891
107.1822950344 -183.3107967837 1498.4972682763
78.6100357701 -189.2443939805 1499.7715660146
107.7474109994 -182.1459564026 1498.7321613879
107.9284736962 -180.3529724469 1499.1599590729
107.8352930802 -179.1802999875 1499.4601019654
93.0322951600 -198.9211572566 1496.5377960097
94.7722583783 -197.8797729787 1496.6233796741
89.3830321410 -198.0131826801 1497.1100064461
90.4427756766 -197.6079601523 1497.1064501134
99.5016902768 -195.5072515063 1496.7446425052
96.3443528778 -196.0799450723 1496.9095138521
97.4654036329 -195.5807686244 1496.9228935397
98.7535891747 -194.7238860531 1497.0071363393
100.0476149845 -194.2643348534 1496.9942229133
85.4257651604 -195.3426782007 1498.1403640327
104.3909488301 -190.1473930353 1497.5767519257
83.6894404142 -193.4329445946 1498.7718650199
105.7229207876 -188.0045624292 1497.9693994227
81.5860062829 -193.2030842612 1499.0303362598
81.3619366807 -191.8197761725 1499.3882081532
79.9226692921 -191.9940594781 1499.4844608158
105.8776411064 -185.7360438109 1498.5059886120
78.8680320925 -191.6804636256 1499.6622745486
105.7199850597 -183.5399634218 1499.0550539258
106.6899539680 -182.3581877082 1499.2489290755
106.2534952995 -180.3862342740 1499.7703604110
106.6432318245 -179.1795367357 1500.0261788812
107.6854545562 -177.5823200932 1500.3140912256
106.7585381316 -176.3619980201 1500.7000343989
95.0294559541 -198.8918673574 1497.8604815609
93.2452390593 -198.9936791783 1498.0166551504
99.3312117477 -196.8344891180 1497.9028193048
87.7827357997 -198.4449010140 1498.6937156455
101.0249507121 -195.2337454876 1498.1022784479
98.7044502911 -195.1422937123 1498.3571459146
89.1377269713 -197.1643061097 1498.8532829600
103.0574374695 -193.3128531312 1498.3416294197
86.2200243168 -196.9740121712 1499.1911520395
100.7540141767 -193.2973805753 1498.5772121401
86.0247861002 -195.7399024472 1499.4961154975
82.9169375181 -195.4345344970 1499.8797390335
84.3037854294 -195.0265954333 1499.8343591033
103.5613670004 -190.0730303707 1499.0398472930
81.9685053969 -194.1384670368 1500.2748890684
104.5702205733 -188.7142458819 1499.2523540281
105.8278412643 -188.0968113736 1499.2684208187
80.3961065915 -192.9899372852 1500.6987789594
107.0803696663 -186.3603411529 1499.5436966107
105.7470506565 -186.2755204730 1499.6976000543
107.5284727790 -184.3339755378 1499.9670132183
79.6156509806 -190.6139289049 1501.3266682854
106.3266785062 -183.7379529008 1500.2258476933
77.6361958692 -189.4816310018 1501.7878053328
107.6174589427 -178.1516157992 1501.3872740029
90.5823978112 -199.1810512005 1498.3226730666
96.6010944817 -196.4157850955 1498.2496082289
87.6743742363 -196.9198144532 1499.1317394046
101.8035975667 -192.9663810634 1498.4142660457
84.8679068458 -196.1616433377 1499.6062351020
102.1967385816 -191.8243215199 1498.6162925487
83.5861282592 -193.8225997183 1500.2515825205
105.0066135727 -187.2738197533 1499.2832864894
81.3636298871 -192.0363348702 1500.8824162183
79.6595980874 -192.1332503982 1501.0506565075
78.5376000816 -188.7094732030 1501.9115945380
106.3925565867 -181.5450995045 1500.3617143552
107.3903649018 -180.1740791529 1500.5458927824
77.3190522072 -186.9982707297 1502.4148802737
107.6279322940 -179.0702369212 1500.7569620247
75.6824580780 -186.6765111395 1502.6656922313
76.1357587137 -185.4392513789 1502.8815202462
74.9306310716 -184.8506567310 1503.1418497490
74.7938205062 -183.1954079767 1503.5130661528
92.8558188367 -204.4183350982 1521.3017257685
91.5117900524 -204.6154136648 1521.4476518085
95.7224448024 -203.6687210631 1521.0615748156
89.8267530803 -204.7233657722 1521.6606399145
99.9832662613 -202.5523547370 1520.7050948863
93.7325322162 -203.4410908512 1521.3897670833
88.5549894436 -204.4275326184 1521.9028501459
96.7556281407 -202.6592579100 1521.1346301294
98.0715886545 -202.3086150720 1521.0257941536
101.2872871114 -201.2481073644 1520.8038132945
95.4838645039 -202.3634247561 1521.3768403609
92.0776579860 -202.8257848312 1521.7546744770
99.5741818689 -201.2024952004 1521.0538914647
89.8449761585 -203.0465031101 1522.0201135862
88.4227123949 -203.2596911297 1522.1735326267
86.6092737345 -203.5534264147 1522.3644166694
101.6826509511 -199.4139153013 1521.1443669961
84.8982629634 -202.6309918518 1522.8035041914
86.2142234773 -202.2803490139 1522.6946682156
100.6175239820 -198.9161895168 1521.4011882903
102.6456636134 -198.0205414696 1521.3101474703
83.9054011418 -201.6403543470 1523.1566096772
104.5976627368 -196.2641804766 1521.4156090027
82.0540490187 -199.9500984271 1523.7811475201
80.3170644487 -197.9972771939 1524.4463344582
106.1187926118 -190.3739284790 1522.4739852333
106.9032368769 -189.3360115493 1522.5880645806
107.0698656103 -188.0269501127 1522.8473200915
106.8172511767 -186.6448716700 1523.1811306689
107.0421109224 -184.7661163773 1523.5552154035
107.8767218964 -183.5585257232 1523.6988918145
107.3031032419 -182.6409052244 1523.9774422338
98.3388660566 -211.6765664381 1555.7544623031
92.8602674869 -212.5491072973 1555.9221056722
99.8460050234 -210.3549609047 1555.9091628819
87.9185006041 -212.8922211221 1556.1557476873
91.8069945312 -211.9050987535 1556.1050564478
98.6817719672 -210.3028497321 1555.9888910500
94.7656228148 -210.8112430865 1556.1301331923
83.3673460755 -213.1442980707 1556.3827893958
84.4686646744 -212.5641730160 1556.4242357851
81.4823811656 -213.1792996688 1556.4897099433
88.3571586016 -211.5770506474 1556.3735445455
91.2300604075 -210.8266241569 1556.3400141034
86.3512079820 -211.8019742089 1556.4524815610
79.8746469071 -212.9879645529 1556.6219739002
87.2862560299 -210.8562884970 1556.5718071484
102.8754909706 -207.0613062354 1556.3384185355
83.3272436387 -211.5363964396 1556.6837456974
80.4519202303 -211.5596257211 1556.8524424631
79.3986472746 -210.9156171773 1557.0353932386
105.8973729110 -204.0928733673 1556.7077469410
105.6104558498 -201.4104212452 1557.2230688255
107.5158111778 -199.6725570343 1557.4310963456
106.4500910104 -197.8993758737 1557.8244525201
107.3422758196 -197.1254047500 1557.9144745141
106.7729457027 -195.7217083522 1558.2093594178
97.8756503726 -213.1580685539 1558.3897869900
99.8834239564 -212.5875061247 1558.3628189430
94.0660482149 -213.4378694740 1558.5860402205
103.2065126258 -210.9662919349 1558.4405090038
92.5531147997 -213.3200174931 1558.7053597170
98.9065197119 -211.6089749460 1558.6029533162
86.7173692634 -214.0937470767 1558.9436205466
97.3980357092 -211.1655906461 1558.7808153442
90.1551261137 -212.6068031619 1558.9896158263
83.1048132906 -214.1632886965 1559.1651058505
81.8212162374 -214.3139772657 1559.2210357849
92.1673491100 -211.7107084137 1559.0211903107
88.7980498815 -212.4509566684 1559.1057039691
103.7464190642 -208.4013173763 1558.8690760898
82.5448206233 -212.5153403640 1559.4992073501
106.3542300279 -206.5489124083 1559.0348893261
81.3024125720 -212.4937641456 1559.5836007118
106.8529474643 -204.1562026373 1559.4349929849
107.7184886509 -201.9174051383 1559.7835152798
108.1259292583 -200.5202895807 1560.0096070211
106.5255962819 -199.6937364523 1560.2626668095
107.8821003694 -198.4708199040 1560.3957883446
97.4003104099 -214.1470951415 1561.9002060390
94.5466445318 -214.3196416208 1562.0637789477
100.8922120440 -212.2625554418 1562.0068390572
102.5805205606 -211.7421215228 1561.9867621951
98.3881070360 -212.5069325749 1562.1333311648
88.5097383112 -214.9945515815 1562.3530031421
101.3565941318 -211.1653584541 1562.1762251275
93.1860569459 -213.2088354179 1562.3604979472
83.4434226113 -215.5797859988 1562.5922741146
85.1317311279 -215.0593520798 1562.5721972524
80.9007349419 -215.9969351592 1562.6897306842
86.9167279898 -214.2696659825 1562.5948691709
105.5280944837 -209.3481881859 1562.2240188389
103.9155611399 -208.5470107106 1562.4812071630
106.3792299529 -207.1739824851 1562.5644000319
105.0586151787 -206.8664715947 1562.7111141836
106.2002790672 -204.2098651390 1563.1200615901
107.4028289401 -203.4089132118 1563.1846414676
107.0305013638 -200.9833002223 1563.6548054644
108.3692490102 -200.3910356493 1563.6718094032
107.6101680525 -199.0424313728 1563.9709782772
108.7936582863 -198.4905433492 1563.9912003213
108.7722817303 -197.1128283533 1564.2452431312
107.9555584720 -196.1860600076 1564.4710186338
109.1367317889 -194.0073930845 1564.7896413211
107.5060655728 -194.1059910726 1564.8831115546
107.7761442030 -192.8965868816 1565.0863603207
107.9676673602 -191.0566594055 1565.4105783966
108.0043964880 -189.5824642586 1565.6783344491
108.5264208763 -188.0634313400 1565.9211138907
102.8875630835 -214.9072272712 1567.5961425436
101.6580551200 -214.6861167832 1567.7239366920
93.1696389537 -216.7971282715 1567.9767875675
81.3449902019 -219.7847879320 1568.3208932802
103.4261724544 -213.2753574821 1567.8392943739
90.1241799951 -216.9337329270 1568.1749229169
106.1369165874 -212.2502083769 1567.8192843124
94.6294061817 -215.4749773006 1568.0992670573
101.4131085229 -213.5255940353 1567.9425872849
97.5928818361 -214.4592633254 1568.0592202369
89.0488470848 -216.6683182739 1568.2991561613
83.7337002112 -217.6212681615 1568.5213142635
90.5174025525 -215.6718848963 1568.3646344911
81.7206362798 -217.8715047148 1568.6246071745
104.2858126335 -211.3050531471 1568.1176301535
85.9175123599 -216.5013574186 1568.5560731227
87.7588247588 -215.6439898439 1568.5703434357
108.3324061226 -209.4036662072 1568.1519639227
107.0384913344 -208.9548815861 1568.3238442800
107.7830018813 -207.7562079806 1568.4770432405
106.6393696841 -207.8386630034 1568.5460557769
109.4184131041 -206.4656442223 1568.5812664234
107.5292670445 -206.2699676394 1568.7526949934
108.8348592193 -204.9921208336 1568.8787353872
109.8310979722 -202.3260771469 1569.2675125828
108.5118217803 -202.3769449571 1569.3547814261
109.2221826837 -201.3522061895 1569.4803700326
108.5703295121 -200.2265524768 1569.7226182883
109.5461026388 -198.9614226236 1569.8704758928
102.2084750048 -216.3960687514 1570.0805837236
99.3728091304 -216.9835422383 1570.1960774300
96.1524261523 -217.6841722069 1570.3214528887
104.3528110446 -214.8612369006 1570.1819155192
97.5160872921 -216.6255377971 1570.4001794503
105.2216700580 -214.1125236859 1570.2449131414
101.8474002385 -214.8584162472 1570.3742413010
93.8233835730 -217.1363200058 1570.5945634469
95.3953935897 -216.5095606620 1570.5826234797
92.6035295340 -217.2485362697 1570.6685537932
99.0999184775 -215.1733739603 1570.5301273956
83.5135456709 -219.5933936995 1570.9589135845
90.2845666953 -217.6018396219 1570.7849947426
97.3195595839 -215.3682582382 1570.6327338916
106.2781379909 -212.5688944460 1570.4310642787
84.0752114774 -218.3596856548 1571.1293357824
90.8462325018 -216.3681315771 1570.9554169405
107.7086628107 -210.5864731865 1570.6644840988
107.9210750195 -206.9897081447 1571.2704517866
109.6694532630 -205.8179172532 1571.3392965958
108.2305901304 -205.1726229131 1571.5611039061
110.3412040922 -204.3874444949 1571.5353294855
109.1106898364 -204.1740252209 1571.6664702669
109.2550774132 -202.6520870595 1571.9187063487
110.2346019253 -201.1310891160 1572.1068338365
109.4775693627 -199.9564775710 1572.3680044276
108.8631829488 -198.9864879109 1572.5828535790
109.8202260756 -197.9652589223 1572.6862435894
104.5979427289 -216.0928452736 1571.6607115025
102.9612591614 -216.4968486384 1571.7147891959
97.0948084053 -217.5815901544 1571.9708939422
100.3343735017 -216.3721933055 1571.9340761618
105.1116019564 -214.7059272219 1571.8597016152
98.7407710635 -216.3519630893 1572.0576136233
105.7126163958 -213.0461942523 1572.0988653180
86.5244335026 -218.5827975601 1572.5957332347
84.5138061396 -218.8510467773 1572.7012515481
86.4113623895 -217.0529464144 1572.8664405712
84.8060949541 -216.7070354105 1573.0466725501
109.5508100250 -209.0257599456 1572.4987031323
107.7893903471 -207.5742313770 1572.8801826797
109.4132159640 -206.2688949804 1572.9815454497
110.2356008165 -205.3662553258 1573.0742782631
108.3554097947 -204.9374560440 1573.2894299349
110.3869812457 -204.1692639143 1573.2680144784
109.1427996552 -203.0577740261 1573.5522463007
108.3377800309 -201.7335140361 1573.8398541820
109.8835295266 -199.8753688571 1574.0418407362
109.8344836308 -197.4213412180 1574.4661106978
109.2379764689 -195.9528415112 1574.7627281532
109.2460626063 -194.5515655669 1575.0022714736
102.6921252325 -218.4235406842 1574.1692279621
95.9633213212 -219.7089581916 1574.4774975623
105.8467293656 -216.6486040816 1574.2194798588
88.1050903443 -221.4171207298 1574.8031196185
100.5993348209 -217.5701112804 1574.4733245606
96.6382550990 -218.5987118804 1574.6096186398
84.9982446942 -221.9410046551 1574.9570225851
102.6469244250 -216.2936109132 1574.5266148897
92.2450946260 -219.0155024045 1574.8810722290
85.8778247122 -220.1095440986 1575.1931003596
107.2348037077 -213.4272693173 1574.6470459047
83.8107559809 -219.9079181748 1575.3869069652
107.9736659522 -211.9679843443 1574.8322008800
109.8037484760 -211.0867964824 1574.8366795086
110.8909081438 -207.1316865941 1575.4094968909
110.1483610217 -206.0363119297 1575.6490767646
110.3044973110 -202.6090556379 1576.2063963581
111.0080861786 -200.7481777203 1576.4610103537
109.6673945856 -200.7399124454 1576.5663580511
110.9342302813 -199.3688795556 1576.6959043632
110.3099883961 -197.8256381032 1577.0007210598
110.2809575723 -196.5977223476 1577.2069870218
103.3260798777 -219.1241464921 1575.9614791774
101.2646449321 -219.5103655678 1576.0626487788
106.3088861920 -217.6282341503 1575.9674375501
86.9015540873 -223.2674643953 1576.5942248701
99.7788717213 -219.3063711060 1576.2139873899
84.8629580552 -223.7292858931 1576.6812866966
91.6082196730 -221.6544275035 1576.4821146832
93.7316003652 -220.9186428664 1576.4328495448
82.8340589493 -223.1139641569 1576.9426963238
96.3245821849 -218.9642473777 1576.5443522970
90.7372150301 -220.4350515206 1576.7496345418
107.5546912477 -215.0967007021 1576.2799200581
88.1245202296 -220.6603285248 1576.9208151530
80.4072013889 -222.2905444766 1577.2695903241
108.7319795632 -212.3383599871 1576.6347258908
110.2584225737 -211.2904284340 1576.6836873120
109.1036540434 -210.2409666183 1576.9461526690
111.5054714675 -204.0487320017 1577.7618365789
110.9263646719 -202.4090566485 1578.0744709455
101.0221560151 -220.4338903685 1577.2505472734
85.9587367127 -224.6451165214 1577.7632946666
87.3925720637 -224.1223770182 1577.7345528560
83.9199034572 -225.1058275660 1577.8506841922
103.1936967667 -219.0240255765 1577.3087809865
92.0546157268 -222.3608980791 1577.6512766145
84.8565031294 -224.3228125017 1577.9045976204
100.2970902222 -219.4177214895 1577.4758765606
93.3061869864 -221.2334439217 1577.7366740426
106.1629768633 -217.2041057059 1577.3706494372
94.7338695062 -220.1345106569 1577.8032767801
86.6157874168 -222.3788357141 1578.0837615010
97.4026459366 -218.9849214261 1577.7788552544
109.1633550613 -215.2094729522 1577.4587890547
105.3073658331 -216.3105945978 1577.5862386055
89.0090054513 -221.1486704783 1578.0946657138
106.8489634099 -215.5896079920 1577.5815043187
80.8992384520 -223.1426933206 1578.4156890063
108.0632837369 -214.0606729561 1577.7359751281
110.6104979109 -206.6720758994 1578.7483398692
110.9525770275 -204.7502341852 1579.0373227036
112.6724481233 -203.2312724956 1579.1496768459
111.4935504156 -202.9325026955 1579.2932434425
112.3307029521 -202.0974325189 1579.3636879185
111.0856184691 -200.7453987470 1579.6859398494
112.1838614801 -199.6650130287 1579.7758645633
89.3176894352 -223.2092357963 1578.3549477812
104.1622909592 -218.5505328592 1577.9306745513
107.8648317481 -216.6654893151 1577.9429621086
84.1006280818 -223.4127453302 1578.7382553278
91.4428485038 -220.8188710934 1578.5757210863
108.2422351285 -215.1444208839 1578.1612876471
110.2632069992 -210.4725035453 1578.7630597468
112.5529308346 -221.3480834706 1583.7772993598
92.3697033773 -227.5002567284 1583.8832304105
86.3742186954 -229.2941663972 1583.9202747548
113.7602716655 -220.6389329884 1583.8275689136
90.9208918381 -227.7053460449 1583.9300835350
99.2191598087 -224.9421953926 1583.9253102990
95.6736962388 -225.9691954776 1583.9528316939
102.4112542970 -223.8601941225 1583.9266435831
87.4343217029 -228.3826845151 1584.0123383663
85.1668736276 -228.9268314424 1584.0486328495
93.5652629792 -226.2151473070 1584.0297298661
115.3209773410 -218.9082982542 1584.0276114369
89.8018869222 -226.8135186678 1584.1405417842
92.4874860096 -225.7244480618 1584.1713249316
99.2250440678 -223.6154467067 1584.1451368208
113.6189181013 -219.1098529026 1584.0891894931
111.6106062226 -219.4072712490 1584.1519579180
81.7156344689 -228.1025904193 1584.3780809207
80.8734354747 -227.2897301517 1584.5599820830
81.0265575573 -226.1653128658 1584.7380145472
79.2125957075 -225.7394420580 1584.9099522526
108.1815064333 -223.2116491215 1584.1701336270
106.6033995849 -223.5413844432 1584.2040082537
93.9028600004 -227.2798086065 1584.2968589872
96.8172047094 -226.1164585410 1584.3261844327
110.1887081200 -221.8360897690 1584.2855130291
100.4440592921 -224.8122691198 1584.3388839634
89.2035369579 -227.8438810134 1584.4669767133
97.5997095887 -225.1253520691 1584.4465462103
112.7317146598 -220.2923322811 1584.3987126418
107.6562224099 -221.8027850243 1584.4330882695
103.9878217795 -222.7058691926 1584.4891939834
91.3109001147 -226.5197087454 1584.5682213883
98.0817300578 -223.9800843436 1584.6093121691
93.7716733125 -225.2502540364 1584.6405738121
102.9332814479 -222.2914420417 1584.6170293243
116.3047848584 -218.0110732696 1584.5763579206
96.7446334439 -223.7371858025 1584.7245697752
82.7664714212 -227.9595065411 1584.8088909540
115.9855135668 -216.4547088677 1584.8522016963
117.1393566153 -215.8440098183 1584.8886893066
80.0564219374 -226.8223297321 1585.1493699983
88.6679087536 -230.4476558785 1585.1473073278
91.0893965279 -228.5223058257 1585.3275584154
99.6098911579 -225.6649241661 1585.3161016268
87.6046440896 -229.2087021939 1585.4117310815
107.8006351374 -222.8288239947 1585.3198080434
85.1856435686 -229.8070878922 1585.4500659385
91.9176405846 -227.6804618258 1585.4194249258
96.2833862596 -226.0526719194 1585.4405410088
103.0153832755 -223.9260458530 1585.4098999961
104.8908760714 -222.6704916460 1585.5106622319
94.9273773015 -225.4863987976 1585.6106608988
101.6593743175 -223.3597727313 1585.5800198861
99.7996243452 -223.8643783255 1585.6021469579
84.3096248386 -228.0945527214 1585.7819490787
116.8193500724 -216.7472673188 1585.8115897572
117.4628354485 -215.0520404507 1586.0545828258
79.5978394871 -225.6873477196 1586.4455244669
111.5168405604 -225.6869192953 1586.2343726910
90.3889899794 -231.2683355466 1586.5480879331
114.4382668616 -223.2440235706 1586.4434862980
87.6234834512 -231.5796217797 1586.6525016104
85.9995734465 -231.7716011316 1586.7124247371
114.6324523064 -222.0157735692 1586.6184290648
104.3027974030 -225.2718606842 1586.6921431318
84.9411992565 -231.3645151550 1586.8318907592
98.3763317395 -227.0212517645 1586.7523749268
106.1140064991 -224.3533465557 1586.7317355059
89.4484652543 -229.6576772015 1586.8429485166
107.2104509972 -223.8323954092 1586.7504022067
97.1444311652 -226.3372701148 1586.9231799800
103.8619974067 -224.1656384195 1586.8834220639
113.0500557866 -221.0288581856 1586.8541985475
85.2949430149 -229.5851946630 1587.0813572031
84.0075608849 -229.2521415850 1587.2021786086
81.8422173027 -228.2871829787 1587.4665542711
116.1968514872 -216.9313905611 1587.3009603782
117.2689983842 -216.3350460881 1587.3323488881
80.5374239251 -227.3770213494 1587.6755247518
118.7532276804 -207.8634050985 1588.5310528434
107.3360356604 -226.1014022673 1586.8239725562
89.0081123777 -231.2218949537 1587.0136363568
95.1182377234 -228.7372681646 1587.0672042099
86.8073095874 -230.9371120882 1587.1715461520
88.0066893709 -230.2142836300 1587.2173770524
93.3537960138 -227.9775124342 1587.2736313652
116.5555403007 -219.9409203559 1587.2670225203
114.1657443194 -220.6339042076 1587.2879500160
94.2265181753 -227.0275667044 1587.3706660855
115.3376982382 -220.0865982836 1587.3088506214
98.1972032914 -225.4878265979 1587.3942262604
83.2175987151 -230.2704277386 1587.4594803417
82.9517685463 -229.1904833557 1587.6356042825
80.8975937727 -229.3579114145 1587.7179172548
119.8802684359 -210.9467826633 1588.4440924147
118.5277498043 -209.6366855806 1588.7116364007
119.7515675905 -208.9892256099 1588.7448678306
118.7954976198 -206.3007456230 1589.1987174142
90.3594465082 -235.5273861408 1589.6257051897
89.0949937284 -235.2775822810 1589.7362212382
90.3198389084 -234.1227851977 1589.8414552506
108.0496560861 -227.6872550517 1589.8022828358
109.1676624767 -227.2348609459 1589.8068925338
90.9104845849 -233.0939151033 1589.9639383990
106.9088862254 -227.8135920643 1589.8485348358
105.0557608827 -228.3418293800 1589.8745766241
88.3736865712 -233.5976230590 1590.0329349427
101.5552953219 -228.9968137318 1589.9758732765
86.7777926343 -233.6239975253 1590.1204930756
94.2437133998 -231.1598467737 1590.0666380794
103.0314525670 -228.0926405556 1590.0285969686
91.8592811160 -231.6132659386 1590.1345355415
113.1657467195 -224.4976070453 1589.9935169335
100.6489933967 -228.2952308016 1590.1345033191
102.3061991826 -226.9143391713 1590.2492928966
84.3388817347 -231.3434429784 1590.6070378499
83.1219290090 -231.4949243864 1590.6538393906
80.2753940873 -229.5156925610 1591.1179757902
118.5151007388 -210.9736845759 1591.7420163703
117.1556478510 -209.9213101806 1591.9799614341
118.2241810739 -209.3184597258 1592.0102767516
117.2970887920 -208.0399907834 1592.2577773804
117.2060349111 -206.7357624102 1592.4612241724
117.5552340903 -204.2021238147 1592.8262620827
89.1382544441 -236.1426223346 1590.7327448414
87.7475404473 -235.7705938602 1590.8717777160
91.5039759251 -234.3543389745 1590.8623485533
89.3739690612 -234.8123833906 1590.9198660402
106.0963898951 -229.1672636421 1590.7781520466
104.7788631120 -229.2716313450 1590.8407908073
103.6135845658 -229.3253632293 1590.9020244459
86.9687563027 -234.6943080252 1591.0808816548
88.0857328572 -234.2393596750 1591.0831926843
100.5964419551 -229.9115452245 1590.9929689964
107.2953643774 -227.6835692097 1590.9311436206
94.7099996135 -231.7858445262 1591.0599156460
92.6297631937 -232.3942483648 1591.0917342412
91.3107679582 -232.7494731109 1591.1165272255
98.0096903806 -230.5214970961 1591.0547018498
101.9447277696 -228.8789290600 1591.0688638954
105.8797651586 -227.2363610239 1591.0830259410
100.0460301658 -228.7593056618 1591.1999652518
92.1803607448 -231.2918706042 1591.2851784897
95.9660868017 -229.1982243001 1591.3764372103
101.1176416333 -227.4014267591 1591.3415125022
111.3695124001 -223.9083292978 1591.2595162011
94.4201876633 -229.3785457307 1591.4411836543
83.9751089296 -231.2667773285 1591.7773586276
115.7803843803 -218.8527122439 1591.7614579734
79.8527373832 -230.3010513280 1592.1687583598
118.0187428464 -217.1902444138 1591.8796173616
80.7706321615 -229.2446652871 1592.2738649560
117.0642936952 -215.8385576427 1592.1408216447
118.4623499538 -214.9563009009 1592.1910176521
117.8460932125 -212.0733799447 1592.6636369034
118.4902505485 -210.1900170792 1592.9100874037
116.4671268345 -209.6944951243 1593.1054359892
117.6865811818 -209.0385515329 1593.1320407882
116.8053192444 -208.1632609391 1593.3168509574
90.5506243781 -235.7628216148 1591.3785232271
88.6269370653 -235.5692866020 1591.5227878945
95.6578216857 -232.5583999038 1591.5602521838
91.9547468970 -233.6255912920 1591.6192872539
99.9973345576 -230.8617835275 1591.5588121797
96.8283399274 -231.5005906388 1591.6510197878
98.9620214041 -230.2887170972 1591.7076733519
101.1704919565 -229.3023106966 1591.7256163713
93.6633040330 -231.3869024012 1591.8572822772
84.8898378360 -233.4761851674 1592.0638495202
85.6548831144 -232.4700433987 1592.1709818932
115.7453703996 -222.0245019610 1591.9606758843
83.1210069889 -232.7302573048 1592.2827662735
113.0579573869 -222.5862769340 1592.0358264724
81.9846554892 -232.1073998028 1592.4452232114
114.8137347494 -220.9995630364 1592.1719778783
115.0985179890 -219.8196216230 1592.3341855651
116.8240873453 -219.1610791436 1592.3311673107
115.9711995066 -217.6091120112 1592.6178136416
79.4154353444 -229.4581526691 1593.0010158534
117.4553894155 -214.6940216976 1592.9719402989
118.8634706702 -211.8042960260 1593.3267592071
117.2167914267 -207.0948507078 1594.1403728958
116.9215938598 -205.4404867951 1594.4092699559
91.8940110159 -235.7313624506 1592.6877147314
105.1528026446 -231.1135619873 1592.5463393773
90.7290979652 -235.7883313551 1592.7528522194
102.0356188426 -231.9093952866 1592.6233867289
98.0308756857 -233.0866864487 1592.6989636290
88.6784247063 -235.7250436051 1592.8922435411
108.7558396111 -228.9853775738 1592.6399290252
89.8961373042 -235.0657217385 1592.9148138950
87.7184128308 -235.1286014714 1593.0431773972
105.5671028617 -228.5524536179 1592.9072428271
86.1759444300 -234.5606437899 1593.2266799973
112.5915268864 -225.5263197531 1592.9199621762
84.7363764034 -233.5405519601 1593.4720118527
110.7717047896 -224.6338731133 1593.1700727157
112.7275738342 -222.8915796840 1593.3096114228
82.2320969803 -232.8778666622 1593.7307240234
83.4238595913 -232.3942926474 1593.7283715278
114.0258351128 -220.9524424862 1593.5205367533
116.4362098950 -219.5586893462 1593.5786167542
80.3138723760 -231.1832678776 1594.1083160210
81.5825853743 -230.4233075661 1594.1428699312
90.5694675959 -238.1423593594 1597.5682859212
95.9858908861 -234.6624483933 1597.7553498509
98.3044302745 -233.2679781837 1597.8218234480
86.7984000309 -235.5925224580 1598.1489655564
113.4344523203 -225.2326782338 1598.1034136593
115.6512930054 -220.8511338442 1598.6027656151
115.3612757414 -216.5862715138 1599.2291175319
114.4347617836 -214.8936909719 1599.5242021642
89.6676042049 -239.2522949837 1597.1950872256
97.4736274644 -235.3062301025 1597.3239046671
87.8892554609 -238.5197938035 1597.3795140470
89.6294368798 -237.1648682839 1597.4705014801
86.2337363932 -237.1568756319 1597.6404355539
87.4217205811 -236.6641170625 1597.6459168545
85.1304145567 -234.9317905101 1597.9868631933
113.4417981128 -223.5105674584 1598.0753083262
114.6370373762 -220.0745308204 1598.4660871714
114.3134977607 -216.9089761652 1598.8969618993
101.2823359632 -233.9021403642 1596.7349183371
103.9622197554 -232.8134728242 1596.7524920402
