78.5208464549 -250.7871392524 1746.9454441516
92.7025254891 -248.6538657632 1750.0881770591
88.4983682649 -249.2190730670 1749.2047188043
80.4000358718 -250.3028587459 1747.5064959103
90.2225666541 -248.7581070249 1749.7314237552
90.9781223161 -248.5772514691 1749.9470633479
78.2687556532 -250.2202473787 1747.3234207337
93.1090953591 -247.8534923319 1750.7085253839
77.2806110577 -250.1672844629 1747.2490565493
82.8408885783 -249.2636805119 1748.5294471816
80.4772242100 -249.4848310093 1748.1020561736
81.4458669372 -249.2047205230 1748.4131215318
76.4085561452 -249.6936504466 1747.4896459004
98.1459965835 -246.2894017358 1752.4031834947
95.7048367014 -246.5222094654 1751.9586190828
80.4963165108 -248.7427437389 1748.6365374791
79.0045022712 -248.8999479164 1748.3541483596
77.2027059763 -249.1037810225 1748.0030656247
75.7883872506 -249.2493279678 1747.7378499091
74.2769687509 -248.8046685750 1747.8849575833
75.7299840376 -248.5188979296 1748.2551578107
73.4825117441 -248.5881674947 1747.9499247185
77.4928789877 -247.9177081873 1748.8868472735
73.8310879686 -248.1325246977 1748.3163984656
72.3972673746 -247.9449982409 1748.2878839238
75.3225950325 -247.1689500159 1749.1771744445
73.4624979163 -246.9111432519 1749.1506039914
73.2879026284 -246.3325941461 1749.5457539773
72.0865685760 -246.1100959927 1749.5687596472
154.4073419788 -213.7738896256 1784.3895993382
136.5182991873 -205.3667822850 1759.8349577872
134.0639297918 -204.0834777360 1761.4278437059
133.0057871554 -203.4958041525 1763.4293155942
131.5091842717 -202.7583428626 1762.6788198584
131.0708871067 -202.5068259610 1763.8171521394
130.5867582898 -202.2811198801 1763.0833050100
130.1366809481 -202.0067295530 1764.8679361253
129.7041923303 -201.8175139617 1763.7379690365
129.2658951653 -201.5659970602 1764.8763013174
127.9981243767 -200.9029400577 1765.7061028231
126.9443381506 -200.3619924569 1766.0063501841
136.4650846726 -212.7900298800 1757.0030308767
132.4886557244 -210.3509743916 1764.3485394235
132.3288336036 -210.2928152963 1762.9371234432
130.2246193131 -209.0114634048 1766.4249107205
129.4059616278 -208.5256070015 1767.2399063049
129.1555952439 -208.4124355143 1765.9732564491
128.7245701645 -208.1534404338 1766.5389206563
128.0143936626 -207.7479184245 1766.5630841657
127.1089510306 -207.1977945060 1768.0107454102
125.8984715918 -206.5301307127 1767.0443910222
124.8586623921 -205.9286594543 1767.4103694069
123.3732206783 -205.0694147993 1767.9331956708
122.4277150583 -204.5137008093 1768.6423074666
121.3662096219 -203.8961626720 1769.1664522664
120.8696660015 -203.6247657647 1768.6638339044
136.6007641192 -212.8010924555 1760.1829712533
135.9871983400 -212.3900113796 1761.1090805217
135.6187411431 -212.1413366398 1761.7623248911
135.5680686573 -212.2001906209 1756.8690941621
133.9159276455 -211.0233862929 1763.1055511857
131.8251183783 -209.6594950809 1764.2841016769
130.8673999142 -209.0273968048 1765.2176933612
130.0071369061 -208.4437789215 1766.9045615705
128.4942309733 -207.4545477116 1767.8816987026
127.7295973670 -206.9714295153 1767.4734131401
126.8886355240 -206.4472275232 1766.6418771832
125.8221036712 -205.7578853204 1766.9011262981
125.2198958248 -205.3555677787 1767.7483016107
124.7442138857 -205.0597795835 1767.2393093687
124.1111095337 -204.6514323823 1767.3474984642
123.3335293481 -204.1494201806 1767.5060408995
122.3562723114 -203.5200557792 1767.6217124109
135.1028668425 -216.2142436732 1756.6135708147
134.7114990765 -215.9212309737 1758.3170743034
134.2030292503 -215.6912363779 1754.7828836049
133.5032298985 -215.1360013907 1759.0227999633
132.8223893250 -214.6204398042 1762.2084114036
132.0641059908 -214.1757495065 1760.8166609453
130.9387729932 -213.4213103352 1762.3552959864
129.8405048080 -212.7009658400 1763.2485867796
129.0875807982 -212.1998659674 1764.1380232503
128.5393175771 -211.8039469115 1765.9691397093
128.0596543064 -211.5365533751 1764.5585468879
127.3589840831 -211.0170651962 1767.4139921838
127.1462172602 -210.9174631042 1766.0633515252
126.3103570700 -210.3855728199 1766.1198786147
125.7260521308 -209.9968846208 1766.8029075890
125.0200225832 -209.5338060168 1767.3771659560
131.9067380947 -217.2173773895 1757.2525385404
130.3630011583 -215.8563774358 1763.0171438233
130.2267884281 -215.8029570057 1761.8582205670
129.4051209288 -215.1882330903 1762.1830649969
128.9935553261 -214.8318375767 1763.5585512064
128.1586147345 -214.1783949263 1764.6087280772
131.1589499056 -216.3910777921 1762.0383845889
129.7679515263 -215.2569133663 1764.1963728455
128.7891497911 -214.4169118754 1766.7567617029
128.1144105212 -213.9238468087 1766.3848180829
127.7904487706 -213.7051952221 1765.7568596067
127.2753131620 -213.2432485398 1767.5979190452
126.2311985083 -212.4293847599 1768.2867113847
125.4621684956 -211.8790635979 1767.5733612241
124.1555112163 -210.8662976863 1768.2926105444
123.4457382731 -210.3080940662 1768.8838924859
122.7381273853 -209.7775223591 1768.8289577824
75.8359120386 -253.0225618090 1751.4802872729
75.7571801833 -251.8935051158 1752.4758129774
75.9850705185 -250.7303203745 1751.0776523318
75.8382876805 -250.5053020661 1752.3043277510
75.9605417387 -249.3353091620 1751.7370456300
76.2960468323 -247.7941345824 1749.6213019683
76.8300604845 -252.7652376145 1751.7586188916
76.6911649709 -252.8634108700 1752.8946321889
76.9630154691 -251.6701509241 1750.9289960344
76.6463886564 -252.0369631416 1753.4818277939
76.8026457257 -251.5084716131 1752.3114701434
76.8901404839 -251.1440951855 1751.6737663984
76.9963676892 -250.5794574315 1750.9310128141
76.7980760880 -250.7416151247 1752.5471550973
76.9627854533 -249.9596216352 1751.3714095179
76.9979655285 -249.1756707379 1751.2791523161
77.1012209354 -246.4403898019 1751.1202231877
101.7449314775 -244.8626902773 1748.2591912990
101.5499101628 -245.9294485578 1751.4302261105
101.4455130740 -245.3487933717 1750.8356629941
101.4198592939 -246.3401303861 1752.9464274882
101.1606597074 -244.4957286785 1750.6687274153
101.1314196566 -246.2725931777 1754.3620764729
100.8540687626 -246.5528867426 1756.4103682375
100.7188696092 -245.0060349642 1754.0584640661
100.5900508229 -245.4553646562 1755.6449590859
100.4881178994 -244.9520051975 1755.1909832539
100.3901011778 -246.3675314819 1758.5348193287
100.1041257057 -246.3772900009 1760.0910555979
99.6437443915 -245.4064072553 1760.6329221256
99.3048993452 -244.6557787115 1760.9599972703
99.1282492922 -245.4007838714 1763.3919712247
98.8360034301 -244.3158319960 1762.8032737928
98.5807200456 -244.3903160314 1764.3233856268
98.4371162682 -244.3758713591 1765.0663569402
100.2982833616 -245.8544617861 1749.3798607376
100.2057496370 -245.9731715066 1750.0485913513
100.0766056225 -244.8552080898 1748.4678456517
99.8903941016 -245.0539814953 1749.7350107443
99.6657108621 -245.0346845706 1750.7564451428
99.5424232769 -247.3589899308 1755.8898976488
99.3866749737 -247.5053114175 1756.9107204919
98.9231529217 -245.9070702635 1755.9656977827
98.6764416798 -247.3066423846 1759.8698852631
98.3024478521 -246.5696482817 1760.1895814246
98.0811968273 -246.6662894637 1761.4219042276
97.7985926527 -245.7719396047 1761.0025736406
97.5491665533 -245.9983247765 1762.6218309626
97.2159325874 -245.5566930748 1763.3278500878
96.7562694644 -245.1702849056 1764.7380536718
103.3437164614 -244.4004511182 1749.9187697238
103.2095919309 -244.5856173342 1750.8295424629
103.1278325003 -245.3438766506 1752.6138169791
102.8638658139 -243.5570104603 1750.3093262147
102.8141427566 -244.2198207103 1751.7785111206
102.6883888782 -244.6802689949 1753.1787038428
102.5291523915 -244.0395890052 1752.6212166326
102.2252795349 -244.3873924741 1754.5481002998
102.1815355148 -245.2468327732 1756.3668709079
102.1377914947 -246.1062730723 1758.1856415160
101.7894233352 -243.8417628479 1755.3227385848
101.7055227173 -245.6786214754 1759.1700312222
101.5651687220 -244.5099063117 1757.5283658570
101.3445015312 -245.2960278049 1759.9437445505
101.1986693540 -246.2451852537 1762.3581982874
100.7922074850 -244.3682032108 1760.4750602790
100.6322760461 -246.0026998729 1764.2533607327
100.1440547465 -244.8839771463 1764.1544972406
99.7758587157 -244.2654274170 1764.5087077262
99.6096978120 -244.5460426993 1765.7345700756
98.8960260918 -244.0561374267 1767.7714167152
139.3578368663 -211.0445933764 1757.4068642694
138.4974618102 -210.1608883603 1759.7836137494
138.1239523275 -209.7733730474 1760.6173327623
138.8482547744 -210.4836092485 1756.8946619669
138.3395174381 -209.9702244476 1758.7673047375
137.5085863180 -209.1253126707 1761.4995195039
137.1680956686 -208.7754898360 1762.4350313299
138.8581347114 -210.4327076383 1753.7487994740
139.9952705140 -211.5183507812 1746.4020124591
140.9319855518 -212.4503388069 1742.2754086487
135.9552381373 -207.4738652774 1762.9310424464
135.0797187355 -206.5469639782 1763.9376367468
135.3943403465 -206.8568928128 1762.3929871611
134.7861241321 -206.2066309140 1762.7678289560
134.1015679359 -205.5080860056 1764.8925250813
134.4014675789 -205.7986182206 1763.1701428524
140.0837981969 -211.4432324290 1737.6753555530
132.9984915975 -204.3162365985 1764.9328972170
132.2399031838 -203.4969089286 1764.9765075899
140.9520241776 -208.7540585414 1755.7859955926
140.2010693125 -208.0847373554 1757.5505890559
140.4265626247 -208.2438816832 1755.6825484578
139.4287215079 -207.3836243482 1758.9584486509
140.7592875414 -208.5082405647 1753.8708706735
140.9310983246 -208.6282137536 1752.4064753005
140.2229960654 -208.0090400720 1754.4527098685
140.8242003533 -208.4558185094 1750.1909793268
137.2191098786 -205.3451914661 1761.9429103537
137.3372381328 -205.4259935162 1760.8821602057
139.5802069781 -207.2568275066 1750.2280932980
135.3423566192 -203.5442451893 1762.2520410082
134.9240599442 -203.1527190229 1762.6367833192
134.5056298159 -202.7880651327 1763.8851788941
141.9310079677 -209.0719508080 1735.7439495162
139.3559147458 -206.8558326934 1744.3232545205
139.3453517293 -206.8130645066 1743.2812343224
140.7195029339 -208.0759154845 1758.0265686875
141.2746469551 -208.5317936092 1755.2108077428
141.5732429707 -208.7656148215 1753.2959970459
140.3753089536 -207.7041040459 1756.6367294601
139.4237659351 -206.8743317000 1759.7618277764
138.7708189322 -206.2783805665 1760.9721153957
141.2931859919 -208.4493176109 1751.6809202566
140.7895369968 -207.9702770836 1751.9338025274
140.4152269908 -207.6401327903 1753.0317627866
137.9986899471 -205.5238516815 1760.6520088771
137.1323079349 -204.7554757138 1763.0449394068
141.7925750414 -208.7768870268 1746.2458255374
141.0649790346 -208.1224805903 1747.9348158309
137.2374279600 -204.7848864641 1760.5102882835
136.8417389536 -204.4362374281 1761.6833277299
136.0289819404 -203.7204346134 1764.1044858100
140.0152780389 -207.1400126429 1749.0225897846
136.0920539554 -203.7380810636 1762.5836951360
139.8308940690 -206.8880528855 1746.4218800964
140.1432716847 -206.8009731137 1759.0985911532
140.9420276360 -207.4692270188 1755.7171464512
140.4227596554 -206.9878742703 1756.2188592822
141.0789243034 -207.5395749131 1753.5401702438
139.8248773333 -206.4567150233 1757.6305541991
141.4050381349 -207.7429091864 1749.6468430756
141.1231036364 -207.4004516612 1746.9867048067
147.4334976110 -200.3738349572 1742.4164034208
146.7551824826 -200.2757048182 1744.4852923136
147.9177403791 -200.2510058827 1738.4161209220
148.0145889328 -200.2264400678 1737.6160644222
148.3154081789 -200.2070179780 1735.8751535241
148.6162274250 -200.1875958882 1734.1342426260
146.1175864420 -200.1245852555 1745.6597090056
145.5021247517 -200.0010320140 1747.0853504650
146.1938878251 -199.9914687307 1743.5411353035
147.2200900069 -199.6932498017 1734.5676935717
147.1517245230 -199.4214443833 1731.3498050989
145.9646945900 -198.9593796993 1731.1720309469
145.8081669579 -198.8473998394 1730.4807500101
145.4781141359 -198.6230114757 1729.1765926696
144.5495971813 -198.2754985143 1729.2196722553
144.4389254297 -198.1376669082 1727.9635484182
143.8744564125 -198.0153995980 1729.1539762780
143.7637846609 -197.8775679918 1727.8978524410
143.1993156438 -197.7553006816 1729.0882803008
143.2534826766 -197.5946178356 1726.7184818312
141.8352109082 -197.0727054279 1726.9007080096
143.0139174466 -204.6530239181 1726.9456029203
137.4583154383 -208.7122968091 1717.6478071796
137.1439643898 -208.6319267321 1719.5609201960
137.5207828714 -208.0118361246 1708.8275194333
136.5322167693 -208.2120062100 1720.1795521347
136.9295680226 -207.9142068367 1713.0561847591
137.2751527876 -207.6443465715 1706.7329278695
136.5141854102 -208.0550514591 1718.4945520140
136.8597701752 -207.7851911938 1712.1712951244
137.2778280239 -207.4762161773 1704.7278835544
136.1107544490 -207.6060427466 1716.8752586418
136.3372762911 -207.4004424297 1712.3922558701
136.5314875338 -207.1289373360 1707.4268027568
135.9406203322 -206.3643742932 1703.7953129195
138.0442134083 -209.8276167027 1726.4694332203
137.9408354431 -209.6288520292 1725.1027422104
137.8702421296 -209.4973150650 1724.2182869813
137.8096968364 -209.3599411924 1723.1737990871
137.8596797662 -209.1583613292 1720.3689518766
137.2626629496 -208.3836285498 1716.8204420330
137.4609827643 -208.1821519509 1712.6574549544
137.1910409498 -207.5625102975 1707.9172512642
136.6053580113 -207.6439172199 1714.2321281802
136.8488939173 -207.4161745339 1709.3489941085
136.3539003328 -207.6174446041 1716.2282609234
136.2444696712 -206.7320170967 1706.9228507063
136.0274085490 -206.1679293360 1702.3448174666
139.4727725837 -210.2462103432 1727.3713637921
139.2588518681 -209.9054787718 1725.6066391587
139.0417084240 -209.7795428153 1726.2444823848
138.9920951964 -209.5054880166 1723.6810463539
138.4337720099 -209.2573074279 1726.1564083192
138.5081950806 -208.9795613050 1722.3932967753
138.2878289078 -209.0684209635 1725.4337078611
138.3387338103 -208.7054948595 1720.9495042760
137.8409772532 -208.8276579638 1726.9494902576
138.2043899476 -208.2944068380 1717.6641719954
137.7694572218 -208.3610253765 1722.4636782557
137.5951618586 -208.4091523534 1724.6237375458
137.9208802543 -207.9092279671 1716.0587071164
137.9450442599 -207.6759174969 1713.2559793497
138.2900925684 -207.2648760628 1705.4920729429
137.6257713215 -207.7462506533 1717.0158740598
138.1483377217 -207.0722866273 1704.6893405034
137.8316416744 -207.2463146201 1709.5704871620
137.2159681281 -207.7906513654 1721.3351884316
137.1982495796 -207.5943706057 1719.3327804791
137.7124394691 -206.9278125219 1707.1663108855
137.4215187917 -206.7611322370 1708.0434458475
136.9582338047 -207.0647642168 1715.7257118560
136.6083578622 -206.4203424314 1711.8769388718
136.4801333086 -206.4277367266 1713.1566463662
140.1152804998 -213.0255110991 1738.4439871905
139.6170826081 -212.2270249001 1734.4459941405
139.3946955727 -211.8587216150 1732.5268391218
139.2335304199 -211.8064900293 1733.5683716127
139.0627798241 -211.7668809738 1734.8500626653
138.9951676459 -211.4592242947 1732.0494808636
138.6270771202 -210.6216374820 1726.2899023325
138.4170910611 -210.7659258482 1730.0528091612
138.5211231693 -210.3644709241 1724.4499547777
138.0541175259 -210.5827530076 1731.6559797145
138.1175064043 -210.1025884143 1725.5732309026
137.9937893337 -210.1332740078 1727.1747106758
137.7942824083 -210.1315325432 1729.1768774136
137.6961265195 -210.1285580559 1730.1379343555
137.5979706306 -210.1255835686 1731.0989912974
137.9703951475 -209.3706977959 1718.7716971857
137.4769346317 -209.7560472607 1728.1387264830
137.3207520078 -209.4327935639 1726.0590430615
137.4143049823 -209.1773684705 1722.2169287689
137.0381712417 -209.5404473620 1730.1425840008
136.9267206859 -209.1582885238 1726.9421606246
137.1992019328 -208.6672428648 1718.6170865133
136.8614099649 -208.9798316351 1725.5821074983
137.3680306860 -208.0482304381 1709.8925935224
136.6558923585 -208.4570834990 1721.7421066809
137.1816839660 -207.5002372414 1705.5722755816
136.7119972509 -208.1187412263 1717.3400451060
136.9109901002 -207.7244682996 1710.8561866345
136.8004332350 -207.2089021609 1706.1351817291
136.4498606762 -207.5383209716 1713.4204141297
136.5588753132 -206.8658439364 1704.6963438339
136.5501835606 -206.7450591663 1703.4159208664
136.0804968455 -207.3635631512 1715.1836903909
136.2684964850 -206.7193056639 1705.9788802765
138.8059323738 -213.4842611174 1736.9145282500
138.2094197022 -212.5039665154 1732.2673056635
137.4368890773 -211.6889715078 1731.9456065253
137.3141871489 -211.4740980732 1730.8238980929
137.2436386882 -211.2102469809 1728.4205530832
136.8950904536 -210.5472600552 1724.5748140696
136.7078957022 -210.5029867819 1726.4169823646
137.0843748539 -209.3791910352 1707.5121978524
136.7686580022 -209.2355446237 1709.7546932931
136.3924069306 -209.3688153594 1716.2427941809
136.5453722761 -208.6749919398 1705.5887294199
135.8557294674 -208.0022255209 1705.9881351413
135.9032253203 -207.7375527882 1702.0629388385
138.1250363523 -212.6597903738 1733.0961656900
137.8687643641 -212.4565578325 1733.8154356257
137.4056090495 -212.1128927223 1735.4145954874
137.5244312843 -211.8095314282 1730.0468705986
136.6820489293 -211.1567850930 1732.6047809614
136.6523508307 -210.9747529738 1730.6814822801
136.4043743175 -210.5584506174 1728.5963212490
136.8717221299 -209.2483461640 1706.0035664832
135.9709469417 -209.3653278556 1719.0578601781
136.5318762157 -208.7008006454 1703.4369596019
135.7537017316 -209.2333601129 1720.1780589091
136.0327937361 -208.5927782200 1708.4813739109
135.7233247768 -208.6392964072 1713.0464129693
135.6953685788 -207.9401085983 1704.5526030136
135.3340902008 -208.0289509162 1710.3191860980
138.9975999432 -213.6580634914 1738.4296522332
138.6946369113 -213.0747603807 1734.9828059040
138.5352051007 -212.9999728841 1736.1840208757
137.7960233804 -211.9464761588 1732.5749879732
137.4379830534 -211.6200392456 1733.2144277427
137.6035650392 -211.2693749295 1726.4042774561
137.4344703399 -211.3078473065 1729.2080103880
137.1836845657 -210.8903710429 1727.2036996223
136.5262814454 -210.3978065274 1729.7648874198
136.5325191459 -210.0773382837 1725.5181291073
136.5355942335 -209.8646123773 1722.7136614498
136.4769166999 -209.7043030666 1721.4313531915
136.0049464938 -209.2644559021 1722.1504167966
136.3785373093 -208.7372304214 1710.2129927446
135.9847454647 -208.4411399584 1711.7336826926
135.6040416972 -208.2389979917 1714.2960950327
139.8188624891 -215.2694222823 1742.1052962745
139.4086649491 -214.8868433880 1744.4320412172
139.2156126353 -214.7394397604 1746.1967321643
139.0856509961 -214.5314854592 1745.1548400810
139.0037000728 -214.1665587494 1739.7027875834
138.7247826382 -214.2124579345 1747.5615887629
138.4950192772 -213.9893928026 1748.6849593647
137.9140185439 -212.3291110817 1729.0425651014
137.5833101035 -212.2029270273 1734.6564685517
137.5054484862 -211.6122864816 1724.4736876407
137.3358298515 -211.4423926038 1725.1959334622
136.8186202269 -211.0516229557 1730.0086934363
136.8581021139 -210.6810468458 1721.4291212147
136.7071686193 -210.6041146646 1723.5945682472
136.4143145836 -210.4416002062 1727.5245218792
136.5626111459 -210.0774848309 1716.3787465396
136.4880456940 -210.0381537307 1717.4213760126
136.4134802420 -209.9988226305 1718.4640054855
136.2697571103 -209.9149703724 1720.3087001717
139.4457997594 -215.3221860755 1740.1791510966
138.9678572877 -214.7814982863 1741.1421730602
138.8399002716 -214.6803631967 1742.3452224257
138.4928258344 -213.9187190799 1735.0484651076
138.2336182168 -214.1453901304 1746.8368061282
137.9997786428 -213.1782094853 1732.0821974890
137.8608591569 -213.1931760878 1736.0919160042
137.7244681223 -212.9929010855 1735.3704169767
137.5261279395 -212.4207381113 1728.2338091138
137.3907350879 -212.4326207540 1732.0831420369
137.1081382502 -211.8276230043 1726.4702760114
136.9305753058 -211.3438060833 1720.6968669691
136.7822236185 -211.0474751282 1718.2112051406
136.4863689083 -211.1996779449 1729.3580825050
136.4222738759 -210.9361817654 1725.3486788390
136.3895359847 -210.7517797593 1722.2213172174
136.3740486976 -210.6588077663 1720.6175400086
136.3381667393 -210.3706399078 1715.3250516057
136.3103362324 -210.2884617744 1714.2826239693
136.0511286147 -210.5151328249 1726.0709649898
136.0232981078 -210.4329546914 1725.0285373534
136.0518937489 -210.3014332001 1721.4199402431
136.0452230475 -210.2007513074 1719.4151990539
136.1288640867 -209.9145786256 1710.9951128925
135.8696564690 -210.1412496761 1722.7834539130
135.9973804364 -209.8165274960 1712.3585478501
136.0612424200 -209.6541664059 1707.1460948187
135.8482636148 -209.7338961657 1714.5239107683
135.8944924272 -209.5869548750 1710.1133856975
135.6352848096 -209.8136259255 1721.9017267180
135.6674070849 -209.6790204742 1718.1327440156
135.5268738003 -209.1628219746 1710.6752862561
135.3040802265 -209.0381039892 1713.8832342354
137.3536232895 -215.5759666907 1740.4580984854
137.2231207062 -215.2861114846 1736.4465073046
136.9385983982 -214.9913536383 1738.5307484879
136.8212230952 -214.8754353474 1739.5729952257
136.4510727327 -214.1752262268 1732.1107897606
136.3148849066 -214.1603993481 1737.1638708019
136.0552514244 -213.5799255331 1729.0604768000
135.9629575026 -213.5406697599 1731.5467853543
135.8624334737 -213.5059944045 1734.5143637499
135.7899326995 -213.2744800454 1730.0217550202
135.7393788775 -213.0307512390 1724.2457600471
135.6553150627 -212.9869150482 1726.2507987600
135.5712512479 -212.9430788574 1728.2558374730
135.5009042781 -212.8916086370 1729.4587597838
135.4236988858 -212.8439554314 1731.0627402957
135.3464934935 -212.7963022259 1732.6667208076
135.3061310277 -212.3656586541 1720.4732900320
135.0898018851 -211.9423268893 1715.6590778640
134.8881642626 -212.0545471232 1727.4501889761
134.8562244590 -211.9817016202 1726.4071853608
134.8242846554 -211.9088561172 1725.3641817455
134.8129201194 -211.8245595700 1723.1180035269
134.7768652623 -211.7540042759 1722.3156348322
134.7047555481 -211.6128936876 1720.7108974429
134.6892759586 -211.5308873492 1718.7053541450
134.6373504521 -211.2879219458 1713.0095708120
134.7343489921 -211.1433165653 1704.4266730161
134.6032568442 -211.0350323040 1706.2710361562
134.6316711589 -210.9285970711 1701.6987203713
134.4950922729 -210.8233664216 1703.8639300722
134.2066474666 -210.8932772705 1717.8205031778
134.2021413531 -210.8051637085 1715.1732667581
133.9268297767 -210.4146582706 1713.8081551195
136.6359676693 -215.9838130203 1745.1044374020
136.5983686346 -215.7156262121 1739.0886931136
136.4877408882 -215.6958458654 1742.4573079608
136.4758517697 -215.5077033569 1737.7249495821
136.4449293445 -215.3330682861 1734.0352810283
136.2903785825 -215.3444589496 1739.8101031634
136.1157979920 -215.0751944008 1738.6066980950
135.9029744737 -214.6364899496 1734.1146590208
135.5142825787 -214.1260147612 1733.8734354432
135.5228908675 -213.9233257812 1728.0181803301
135.4195836237 -213.8983502662 1730.9857606293
135.2962465514 -213.5927195388 1726.9751137248
135.1101294710 -213.5282220373 1731.7873775887
135.0346401371 -213.4835048825 1733.2310266054
134.8943777517 -213.0915956535 1727.4557523336
134.8262089204 -213.0416833303 1728.4983668023
134.6060648994 -212.6081740474 1724.4073622761
134.3810609982 -212.4729835493 1728.6581024166
134.4145589958 -212.2526309969 1721.4393298404
134.4187749830 -212.0530591179 1715.8246954561
134.2035522067 -212.2057970679 1727.6151111674
134.1044609501 -211.9812496739 1724.9680570823
134.2632276993 -211.7702871314 1713.5786005629
134.0455443007 -211.6299014649 1717.4283061554
134.0621169852 -211.3232704108 1708.4449062119
133.8468942088 -211.4760083607 1720.2353219232
133.9851635507 -211.2795922896 1709.9687621382
133.7699407743 -211.4323302396 1721.7591778495
133.9082101163 -211.2359141685 1711.4926180645
133.7543032474 -211.1485579262 1714.5403299171
133.6334267973 -211.1360508153 1718.4703931314
133.6763532912 -210.8107171550 1708.0432688151
133.7458099087 -210.6631356666 1701.5464337813
133.5305871323 -210.8158736165 1713.3368494926
133.3842920305 -210.2316657442 1702.5083892038
133.1996390507 -210.1661292090 1707.2404461580
132.9625697166 -209.6463414245 1701.3848142645
135.6597739915 -214.8402354023 1737.1365766943
135.4233973498 -214.3419347012 1731.5999017400
135.3212706922 -214.1287754501 1729.2728759389
135.2157497190 -214.0923319170 1732.4810168353
135.1274987804 -214.0475263448 1734.7266249673
134.8992411795 -213.7203666689 1734.0834282011
134.9573239377 -213.5171711607 1725.5002410832
134.7837003995 -213.4261663431 1729.8310352200
134.7046004546 -213.2018577067 1726.2206323997
134.7055780276 -213.1138482661 1723.4931545828
134.6748938707 -213.0411692303 1722.5303201671
134.6442097137 -212.9684901946 1721.5674857515
134.4269494927 -212.8110778707 1725.6573450458
134.4835930813 -212.6085791990 1717.1543689916
134.2998953563 -212.5224522376 1722.0466405742
134.3939573531 -212.3018358147 1711.4581768640
134.1823994303 -212.4042707931 1723.2492032269
134.0654738607 -211.8481326552 1711.0550099861
133.8539159379 -211.9505676336 1722.8460363490
134.0544764808 -211.6783853032 1706.3219539256
134.0031823538 -211.5281493757 1703.8348076484
133.7974354891 -211.3651623590 1707.2829784331
133.5408560939 -211.1392520189 1710.8912696940
133.5226628663 -210.9729888498 1706.5592689518
133.3044794522 -210.6409513177 1705.3545947397
133.1328110600 -210.3739276189 1704.2304332426
134.9999663809 -215.9249595959 1738.7278238226
134.8733737765 -215.5944076707 1732.7078396967
134.7449068821 -215.5348492704 1737.1187816937
134.5169076540 -215.2784573115 1739.2011478030
134.5841544677 -215.1387485588 1730.3760812130
134.2954715620 -214.8184926096 1733.1795723791
134.2256783937 -214.6874886367 1731.8143530814
134.1320402528 -214.4902806789 1729.1649235468
134.0993539909 -214.4246382928 1728.3619937804
134.0887709520 -214.3575919099 1726.3558628378
134.0634524311 -214.2914815249 1725.1518660126
133.8468408467 -214.3052406929 1736.9432375391
133.7962038049 -214.1730199228 1734.5352438888
133.8003562479 -214.1050375421 1731.7269788287
133.7868261126 -214.0381783588 1729.8812747095
133.7995516431 -213.9019327980 1724.0241043541
133.5826718571 -213.8479903847 1733.2478510558
133.3897695840 -213.5216504497 1730.8374704585
133.3686035061 -213.3875576839 1726.8252085732
133.3580204672 -213.3205113010 1724.8190776306
133.1347100852 -213.1315401241 1729.2284283296
133.1535980101 -213.0626217456 1725.6180291520
133.1474356157 -212.9952945634 1723.3712579741
133.1412732214 -212.9279673812 1721.1244867963
133.0977357190 -212.7275770308 1715.7478012623
132.8811241345 -212.7413361988 1727.5391727889
132.9663217282 -212.6682058301 1720.3191700828
132.8083838699 -212.6105194255 1726.3343803147
132.9257313222 -212.4676282802 1714.7820577254
133.0109289158 -212.3944979114 1707.5620550193
132.7943173314 -212.4082570795 1719.3534265459
132.8910351090 -212.2666763311 1708.9240917210
132.7507798290 -212.2078667291 1713.9767410119
132.7829296877 -212.1381059525 1709.6444211287
132.5663181032 -212.1518651206 1721.4357926552
132.5984679619 -212.0821043440 1717.1034727720
132.6787085078 -211.8738516119 1704.9888606515
132.4851372912 -211.7507100207 1710.3615679404
132.4728125025 -211.6160556562 1705.8680255847
132.2562009181 -211.6298148243 1717.6593971112
132.2574062647 -211.5620196431 1715.0115588746
132.2247200028 -211.4963772570 1714.2086291082
132.0703981843 -211.2353053090 1712.2803246303
131.9426002333 -210.9725485649 1708.9081787410
131.8639657759 -210.8421061906 1708.0242399138
131.7170116984 -210.5805662437 1705.6948683771
136.0001770827 -221.9013443757 1743.8311514192
135.6655060457 -221.4421775866 1744.3860618324
135.1943536719 -220.7847872266 1744.9382146311
134.8495835524 -220.4031973937 1747.4186551521
134.4588549435 -219.5781921525 1742.0347525899
133.8737357672 -218.5669450411 1738.6528954373
133.7604181227 -218.3639287900 1737.8482166132
132.9939729887 -217.2392240844 1737.5920137687
132.8861216883 -216.9595894130 1735.0221890786
132.7056293362 -216.7704719347 1736.5430817625
132.7258275012 -216.6153180222 1732.6920215466
132.5183723240 -216.3562918760 1733.5704580580
132.5023421870 -216.1331463677 1729.3977101534
132.3163834909 -216.0206473096 1732.6837487034
131.9869943504 -215.7113624847 1736.2076060018
131.9130549827 -215.5001986772 1734.0396611213
131.8330001130 -215.2148127895 1730.5075309797
131.8384664570 -215.1381943693 1728.7423851137
131.8140044487 -214.8413060489 1723.2856440689
131.4751653837 -214.7604386806 1731.8643626025
131.4993471291 -214.4534857317 1724.7235870174
131.4871161250 -214.3050415716 1721.9952164950
131.4849842033 -214.0790204551 1717.3413158647
131.1290969481 -214.0771678472 1728.0861408691
131.0574739497 -213.8655247715 1725.8380038677
130.9418399360 -213.6629877885 1725.1135171646
131.1504976139 -213.3933532815 1713.1621335265
131.1397493733 -213.3200897375 1711.9583325072
130.9695405513 -212.8268949184 1706.8196023319
130.6290342751 -212.8973473184 1718.6078441136
130.6761952653 -212.8121020737 1715.3992400702
130.7233562554 -212.7268568290 1712.1906360269
130.7705172455 -212.6416115843 1708.9820319835
130.7629189798 -212.4922088881 1706.0932772191
130.4224127036 -212.5626612881 1717.8815190009
130.3023303990 -212.1345824566 1712.5833237884
132.6901164506 -224.4978937229 1745.0714616571
132.1908542264 -223.7006187870 1746.5299923505
132.1890497865 -223.4896455499 1744.9313112895
132.2049422880 -223.2616953387 1742.9322455523
131.9995187838 -222.6079445008 1741.0218296802
131.8233820975 -222.4578589919 1742.5475779142
131.7277491220 -222.1241927833 1741.4322161077
131.6108798168 -221.8108989437 1740.7973159125
131.2992746638 -221.2590099507 1741.2892080968
131.0646338333 -220.5269356530 1739.2200671759
131.0468674002 -220.1185707581 1736.3430127946
130.8079239446 -220.1350889747 1740.1094863930
130.7698234018 -219.8525830673 1738.5122341536
130.7307511474 -219.0392486724 1732.8382023264
130.4573160288 -219.1952074559 1738.2047858074
130.4661297537 -218.9740480343 1736.3658739407
130.4749434787 -218.7528886127 1734.5269620740
130.5156116983 -218.5011706376 1731.9673577904
130.3253174588 -218.3646667080 1733.8134137652
130.1597989374 -218.2043950146 1735.0989311936
130.1898489921 -217.9628632240 1732.7795577156
130.2057414936 -217.7349130128 1730.7804919785
129.9393851516 -217.8840810065 1735.9869215891
129.8579097293 -217.5368332186 1734.5512520417
129.8436826845 -217.1250729289 1731.5941207253
129.7250784309 -217.0261477212 1732.6379785263
129.7223717710 -216.7096878656 1730.2399569348
131.9671132116 -225.1310321003 1744.5973179148
131.0790413540 -223.0233590494 1743.3029959545
131.0893852761 -222.5473185817 1739.7099592490
130.8518889914 -222.1558481570 1740.6048652504
130.7830986656 -221.8964167754 1739.8114374049
130.7132027978 -221.2912559762 1736.5433883095
130.4592537548 -221.1521887913 1739.5150115645
130.5355022513 -220.7078330472 1735.1190264236
130.4165854422 -220.6280258790 1736.4046959791
130.3041148029 -220.5399998504 1737.5302518771
130.1948672486 -220.4478643914 1738.5757509462
130.2872311698 -219.9829614958 1733.7794816615
130.2008825436 -219.6302039365 1732.5881498195
129.9738237223 -219.8039907269 1737.3939396942
129.9841676443 -219.3279502592 1733.8009029887
129.8025693456 -219.2123489373 1735.8094641507
129.8415836985 -218.9311796855 1733.1723490957
129.9160519857 -218.6048067007 1729.6546089240
129.6721095312 -218.2215551366 1730.7096285831
129.4676123044 -218.3665759150 1734.9550206562
129.5420805916 -218.0402029302 1731.4372804845
129.5939872842 -217.7425959574 1728.4799381144
129.4478429199 -217.5817909024 1729.6078741598
129.4900803577 -217.2965122203 1726.8907022760
129.2469061116 -217.4908461621 1732.0967762945
129.2117895109 -217.3041938067 1731.3009683016
129.3460535363 -216.7858683176 1725.4639602426
129.2496983217 -216.6772951375 1726.1892319966
129.0458757621 -216.3586037391 1727.0817578506
128.9466347962 -216.0222839009 1726.2106533238
128.7019241332 -215.0614468308 1723.1146186233
126.3993691783 -214.7510462637 1700.2755775178
125.7520388903 -214.9919412687 1710.7702625627
125.9404994804 -214.6567377250 1706.3738343036
125.5651492667 -215.0014244084 1713.4962804115
125.7653559153 -214.6520564849 1708.8598756032
125.9655625638 -214.3026885615 1704.2234707948
125.9318953551 -214.0194612966 1703.2729900326
125.7455293871 -213.9203709682 1705.4422044114
126.0334447639 -213.1414105227 1697.3755611645
125.9248621964 -213.0564644641 1698.5017353513
125.8115908564 -212.3295205172 1696.4470730839
85.5953634085 -245.8902833796 1715.2621572432
85.6278441078 -245.1512407087 1714.3581264368
85.6432755001 -244.6448547208 1713.7901400452
85.4333111709 -245.4886991051 1716.1257213778
85.6911875917 -243.3994260621 1712.3181228472
85.8026720166 -242.5190138973 1710.6923825026
85.4208867581 -244.4257125623 1715.2713112798
85.4882750283 -243.3582211780 1713.8111626320
85.7962003586 -241.4240966776 1709.7646145958
85.4977536660 -242.8837658669 1713.3165340492
85.8652065433 -240.6303345982 1708.5364079247
85.6024763790 -241.8984197265 1711.6481805251
85.3397462146 -243.1665048548 1714.7599531256
85.9190713896 -239.3529752626 1706.9910329179
85.6682467347 -240.5571990372 1709.9560899006
85.4174220797 -241.7614228118 1712.9211468834
85.6650109056 -240.0097404274 1709.4922059472
85.5034775713 -240.7350040495 1711.3568957974
85.8411666751 -238.6412261649 1706.9435587171
85.8685035769 -238.0709788234 1706.2288567078
85.5283876013 -239.7541627505 1710.2942808231
85.6993995733 -238.5544438174 1707.9349623902
85.8790812257 -236.7434049207 1704.9650443861
85.7762664812 -237.0124971220 1705.9801851596
85.8809891942 -236.0271509816 1704.3118316355
85.6737417906 -236.2916060792 1706.1101712058
85.7224628394 -235.1830420729 1704.7541249962
81.9297825093 -249.6514137411 1702.1099057638
81.8827285212 -250.3489504864 1704.4254813145
82.0304867807 -249.5024444465 1703.3909691489
81.9403321818 -250.6760167471 1707.0715916711
81.8903775838 -251.2129331292 1708.5849357562
82.0909910512 -249.9901310705 1706.8393109710
82.2877799873 -248.3353376904 1703.0139589650
81.9808008746 -251.1552850747 1710.0884448117
82.1775898107 -249.5004916946 1706.2630928057
82.3812327339 -247.7848174878 1702.2894436861
82.0811076083 -250.5438840454 1709.2156324191
82.3615946941 -248.2388309262 1704.0118307822
82.5069787273 -247.0406437465 1701.2987071285
82.2768437772 -249.2712122184 1707.1430404580
82.2224094185 -250.2206905670 1710.4832931447
82.1724548205 -250.7576069491 1711.9966372299
82.6942817583 -246.4020350760 1702.0035523483
82.3730682879 -249.5348048904 1710.2510124447
82.3656879172 -249.7867464937 1711.2756895807
82.5354584429 -248.8379081552 1710.1974018070
82.5407332791 -249.3502096583 1712.6782447606
82.6664792724 -248.6060359170 1711.6875082030
82.7294866151 -248.7919111694 1713.7842057131
82.8498289263 -248.1889284364 1713.3428820020
83.1354620024 -247.0496693316 1713.6501791188
83.2161306963 -246.8922817406 1714.4997538224
83.4220189999 -246.1817811849 1715.2349719908
83.8132564383 -246.1295826846 1712.8247600771
84.6551049065 -248.4830172879 1740.4427071024
84.7032427508 -248.4382134703 1741.1572594715
84.8626124942 -247.4855286862 1739.6455787011
84.9904978555 -246.6157712087 1737.9250372888
84.8060226282 -248.2084932951 1742.0366872609
85.0006471289 -246.7940072377 1738.9804059648
84.8347105515 -248.2354158297 1742.7210170803
84.9959028372 -247.4419053301 1742.0118591224
85.1580690394 -246.3793707049 1740.0247091744
85.0366252216 -247.4576269103 1742.8748270341
85.3573125413 -245.0142090909 1737.2954815133
85.3480118937 -245.2641714720 1738.3206276397
85.3498344361 -245.4233457565 1739.1231504522
85.5787397777 -243.8160825514 1735.8002606205
85.7621784433 -242.8409958586 1734.6458560347
85.8418006697 -242.7132647344 1735.5692690457
85.8334112933 -243.0428142578 1736.9956765783
86.0604314473 -241.6249880361 1734.5495173305
86.1641225959 -241.4748550032 1735.8302065260
86.2984495007 -240.8135962535 1735.2392415611
86.4930113561 -239.7477214640 1733.8622136613
86.5643068514 -239.6009285954 1734.5327808087
86.7440377870 -238.6561046014 1733.4525839942
86.8384909333 -238.4073226817 1734.0791659199
87.0043022202 -237.6631366255 1733.6970615969
110.8641793027 -229.3073679664 1695.7784049840
110.8157326538 -228.5463002198 1694.6706824525
110.6996592040 -229.0456407242 1697.0345453366
110.6723268443 -228.3112536483 1695.7506859655
110.9640586190 -224.5884697015 1684.4784279967
110.8638484567 -225.4308628057 1687.4077433845
110.6436541637 -227.3329174579 1693.9546687969
110.6049630138 -227.4993642927 1694.7426230916
110.5987449433 -226.7916578875 1693.2826268810
110.7182455396 -225.2199571724 1688.5642240794
110.6926267532 -223.9493899911 1686.1030947495
110.6015782735 -223.9150901228 1687.0370736534
110.3981040546 -225.8921073221 1693.5608165901
110.7162011203 -221.8796321169 1681.3708324386
110.6181880655 -222.6978842830 1684.2236706445
110.6197913568 -220.8695357907 1680.2561801525
110.5916022105 -220.4032387674 1679.5609557608
110.4284224327 -220.3854606397 1681.3292539109
110.3623989231 -219.8175203985 1680.8333488345
110.3183464894 -219.0081707755 1679.5726719392
110.2185095793 -219.0704346599 1680.8125595706
110.1423573184 -218.3551090571 1680.1104054243
124.4454054061 -240.1158635186 1670.7856766700
119.9436844333 -214.9464033812 1702.4210782286
119.8135282932 -212.9067836889 1700.9702476037
120.2316987670 -208.7042714597 1686.2384038117
119.8837881443 -211.3217951020 1696.9103161404
120.2155409334 -207.8886161876 1685.0441399596
120.0848423289 -208.5724101468 1688.5131580224
120.1035591433 -208.2458670055 1687.6041513506
120.1363215461 -207.6343663073 1685.9410389589
119.7930183302 -210.5307059711 1697.0368560637
119.8724610852 -209.6635502301 1694.1141370164
119.9519038403 -208.7963944892 1691.1914179692
120.0687483146 -207.4363532686 1686.7400884423
119.8329471206 -209.0558228809 1693.6943779241
119.8400177792 -208.6730428980 1692.8832207682
119.7839949745 -209.0118691099 1694.4526293277
119.7279721698 -209.3506953219 1696.0220378872
124.8344153085 -241.3262427088 1668.6654933334
124.7173808662 -241.0660066663 1670.1455674164
124.5548567173 -240.5606342306 1671.9398836411
124.5875320984 -239.6253876063 1669.6993563835
124.4446854094 -239.9164246009 1672.6093631134
124.4394625662 -239.3157768766 1671.6075119282
124.3199380936 -238.9158351186 1672.8758318422
124.2457819362 -238.6004116070 1673.5407381910
124.1333633806 -238.1377325553 1674.5768063414
119.8173660705 -219.0049345918 1711.8708495560
119.8628587946 -212.9441384005 1700.1240873866
119.8286053267 -211.7913491176 1698.6053861378
119.7043435760 -211.4332322221 1700.0285405608
119.7370189571 -210.4979855977 1697.7880133033
119.6247217928 -210.1959246927 1699.1132528773
120.1584712404 -219.6756732749 1710.9226316334
120.0508520289 -220.3006276220 1713.7448883824
120.1706956665 -218.8292251424 1709.0762594411
120.0349367211 -219.7135226020 1712.8252236982
119.9041175000 -220.1854019584 1715.6896146719
120.1508397086 -217.1777612211 1706.1206799124
120.1673794376 -216.8418806132 1705.2150395167
120.0670449282 -217.0328049310 1707.0754973567
119.9315357513 -217.5479081394 1710.0943395818
120.1054387632 -215.3948342352 1703.2844602341
120.0234894235 -215.9666545213 1705.6222961166
119.9720247956 -216.2575197688 1706.9561988654
119.8853855004 -216.8725639070 1709.4484859993
120.1111277929 -213.8748333785 1700.2095208549
119.9969731850 -213.8262350014 1701.8032104170
120.0464674878 -213.0031903033 1699.4513502459
119.8847889021 -214.3098160750 1704.4148574013
119.9155233823 -213.6596667853 1702.6808022356
119.8297582769 -212.9825310444 1702.6176622576
119.8934473309 -211.8452176644 1699.4373873165
119.7998979864 -212.3405004552 1701.7962903115
119.8637119247 -211.0185899496 1698.2509543544
119.7145075337 -211.1095733377 1700.6379672856
119.6760166374 -209.4464076992 1697.9351317462
119.5829668300 -209.2033019877 1698.8337906772
119.5253414584 -208.2668231343 1697.8439431912
119.4324165352 -207.8391202972 1698.3775411062
119.3654112523 -206.9890891480 1697.6965961229
119.2607614399 -206.6694459412 1698.6163221663
119.1102111451 -205.3052642507 1698.1600725953
123.5946584741 -246.0617940709 1720.0638785636
123.5356278330 -244.9813424226 1718.2842004945
123.3807047050 -244.0720243024 1717.9553255359
123.2946500154 -244.3848874840 1719.6163181760
123.3585590534 -243.1204298347 1716.0564116408
123.2823383039 -243.3449489439 1717.4090529180
123.2184099793 -243.4590379625 1718.3762549918
123.2724850773 -242.2829243857 1715.1246998194
123.1298736609 -242.4135448055 1717.0030901188
123.1126526939 -241.8779257539 1715.9870823268
122.9110106364 -240.9280945255 1716.0857945571
122.9331215721 -239.8090254580 1713.3178404216
122.8568969652 -239.8034708410 1714.1519408065
122.7560720791 -239.0984815007 1713.6827560294
122.6577211073 -239.2917010467 1715.2106469807
122.5913111538 -238.0474337267 1713.1436915414
122.3478748513 -237.4730648062 1714.5528970636
122.3306461697 -236.4772983023 1712.4998074871
122.1781892414 -236.0060416162 1713.1309264724
122.0503133056 -235.0838510228 1712.4726261584
121.8757261550 -234.5812947735 1713.2789948178
121.8265371685 -233.8726465051 1712.2280471704
121.7625972720 -233.2965143454 1711.6396265673
121.6371991078 -233.5026063645 1713.4969428740
121.3962097183 -232.2159302475 1713.2734378787
121.3642262695 -231.1226061261 1711.1643344541
121.1847182915 -230.4341481870 1711.6063379026
121.0175027385 -229.6352601572 1711.6629021476
120.6978302572 -228.3651154414 1712.3505853779
118.6813325351 -214.2653286345 1702.9668898346
118.6395228609 -213.7204960379 1702.2032195574
118.6223018940 -213.1848769863 1701.1872117655
118.5067453845 -213.7627723852 1703.7732584940
118.4206636937 -212.4651194840 1701.8044648880
118.3911464445 -211.8098567968 1700.6553554073
118.3222857207 -211.0478229472 1699.7025695933
123.4533090616 -241.0377445679 1714.9090728056
123.2145474266 -240.0808175742 1715.2575936376
123.1329425762 -239.4300999628 1714.6892955577
122.9455568264 -238.3054300725 1714.1692197252
122.7732811072 -237.0702818494 1713.2638186881
122.5647448760 -236.5160484943 1714.1662162031
122.4166469867 -235.3120183736 1713.0858038696
122.3048238557 -235.0901408624 1713.7296652294
121.9723657843 -233.1551120541 1712.9351300837
121.7880020405 -232.0083464972 1712.3379892102
121.4585713176 -230.6748723265 1712.7909161157
121.1744724675 -229.2178465922 1712.5293764384
120.8843260435 -227.3892453217 1711.5389487816
119.1374159528 -217.9170130744 1708.8410761370
119.2008727393 -216.8293537728 1705.8981831863
118.9439933138 -217.6680682559 1710.2411665088
119.0376683809 -216.1515688542 1706.0861141185
119.0255678908 -214.7847674776 1703.3038110675
118.8653962233 -215.3321875005 1706.0637311428
118.9077007476 -214.6070812995 1704.1018025090
118.9227965320 -212.8335354893 1700.1844050593
118.6719646804 -214.0438255086 1705.2562763614
130.5521283424 -210.5086001446 1675.2954801054
129.8517938868 -212.6110874070 1684.5831214460
130.4402507236 -210.1915837491 1676.3581200767
129.9368294443 -211.7456867822 1683.0619377187
129.4334081649 -213.2997898152 1689.7657553608
129.7737592891 -211.8898344388 1685.0017731558
129.3455192426 -213.1972517275 1690.6950262456
129.1830197604 -213.5349871266 1692.7532442512
129.5239415576 -212.3186194927 1688.1076446146
129.2165774450 -213.0339566827 1692.0500647055
129.4224889364 -211.5764759592 1688.7780479793
128.7392186596 -213.5252418708 1697.7732908313
128.9977493698 -212.0905664515 1693.9200350605
128.8815152616 -212.2764952387 1695.3563671877
128.6785335772 -212.7470614232 1697.9587353367
133.8431548705 -212.0286881474 1680.0938811705
133.1004764095 -212.4590131867 1683.1197615555
134.2465317906 -211.0684387446 1678.2236125605
131.8527226128 -212.8015329553 1688.0846936018
131.0234713989 -213.5012669840 1691.5317376319
132.4315150591 -211.9223493640 1685.5567679011
134.4468941200 -209.5229414302 1676.9610654549
130.9641154697 -212.7639966382 1691.5326814617
132.1566711378 -211.4131126695 1686.4678782428
133.3492268058 -210.0622287008 1681.4030750238
130.6459851719 -212.3894644385 1692.6543736260
129.0441864121 -212.3954576160 1698.8926922551
135.5605826341 -210.7360058486 1676.4586497852
135.7249599634 -210.2934325754 1675.6751720955
133.8679118390 -212.0823454192 1683.4431137775
133.6682032990 -211.8466530951 1684.1340571134
132.8904049975 -212.4919284246 1687.3524657908
132.5263191281 -212.6988093737 1688.8268868164
134.5254211563 -210.3120523263 1680.3092030189
131.8812590902 -213.1139642361 1691.4555588802
130.9887100221 -213.9702994075 1695.1878786211
135.2114359001 -209.3167209212 1677.3267843770
133.7191174285 -210.1823659681 1683.3761195795
131.0749553623 -212.9842778779 1694.5224754408
132.2329809578 -211.6677017723 1689.6106824729
130.7288569900 -213.1720982018 1695.9210709163
131.7857833874 -211.8731897571 1691.4052734858
132.4041840714 -211.1284324086 1688.7682470202
131.9141857227 -211.4687377344 1690.7734468963
129.9721798248 -212.8108984122 1698.7184208508
137.2686864393 -210.6823151678 1675.2454415421
137.0004571195 -210.5304814098 1676.2418081063
136.7977638913 -210.4933179079 1677.0536571231
135.5154691196 -211.6513767172 1683.2478727301
136.7473402972 -209.8608145002 1676.7822010611
135.7305320243 -210.5762756618 1681.5398963116
136.8550715200 -208.8246939468 1675.5486781989
134.6629006166 -211.6563734672 1686.7852048061
135.7605572492 -210.0391793841 1681.0074837456
136.5629019284 -208.9031092007 1676.8191609547
134.4662923416 -211.3123626993 1687.3387574484
135.2984624753 -210.1377662640 1682.9975567445
133.6402071610 -212.1801118688 1691.4216617780
134.9317292476 -210.3124971479 1684.6502342829
135.0094352455 -209.8134728722 1683.9491239867
133.7748212468 -211.0096036835 1689.9746418635
132.7460428380 -211.8401893510 1694.8693952098
133.0264420641 -211.3783285773 1693.3564358968
132.4778135182 -211.6883555931 1695.8657617740
132.2034992453 -211.8433691010 1697.1204247126
130.7603068357 -212.8106136504 1703.8365533276
131.1452949228 -211.7153409690 1701.4089866661
142.2834713566 -208.0841271056 1674.3563544956
141.8753085823 -208.3154834439 1676.2392126259
141.3512543561 -208.4910723010 1678.5345194606
140.9513318782 -208.8171321655 1680.4793137089
142.0260916944 -206.9491914125 1674.2554216158
140.9788591114 -208.0396592788 1679.5860572198
140.6215412874 -208.3084450415 1681.3009996365
140.4428823753 -208.4428379228 1682.1584708449
140.7104328087 -207.8716035247 1680.5022530650
141.3046189220 -206.8612676791 1677.0838379097
141.7650298186 -206.1365490325 1674.4935316443
139.7969754424 -208.6764541920 1685.0047797791
140.9509833114 -206.8077601287 1678.4597374181
139.5367894360 -208.6031019641 1685.9829117423
140.2244251535 -207.5729214408 1682.1667290418
138.7250219703 -209.4828114799 1690.1496070292
139.3132468286 -208.5862705277 1686.8697452691
140.9725492897 -206.1440821355 1677.7050343242
138.8849212481 -208.9505131267 1688.9677740718
139.6009600682 -207.8821498689 1684.9983568169
137.5133320266 -210.6885808602 1696.2610965644
140.1383399763 -206.9481794925 1681.8864107703
138.0507119347 -209.7546104837 1693.1491505179
138.6022933941 -208.8015487399 1689.9605871941
137.0378437092 -210.6931007220 1698.1879981724
138.2225337223 -208.9947223437 1691.6902107701
139.2203245271 -207.3360333206 1685.9879584581
137.1326964855 -210.1424643119 1697.2506982057
137.2156267518 -209.8194176886 1696.5905050294
136.9293166843 -209.9927466148 1697.9223610601
137.9009834279 -208.5807387458 1692.5738328157
136.4725880012 -210.3951719484 1700.1736244171
137.2312314752 -209.2695345887 1695.9743553307
135.9022469076 -210.9503282203 1703.0378259918
137.0113710813 -208.9304098394 1696.5221459491
136.8244718729 -208.9700991945 1697.3176810395
136.5179989992 -209.2763143814 1698.8647077426
135.8482470465 -209.9651102244 1702.2652302575
136.2779757990 -209.0700758928 1699.6276690334
142.9626266316 -204.5110878370 1679.1381503654
142.4568157842 -204.8834389424 1681.9855977891
141.8557984602 -204.7542706340 1684.3686041535
141.9533108013 -204.2650823714 1683.0891343239
142.0508231425 -203.7758941088 1681.8096644942
141.4932216956 -204.8217831862 1686.0607416413
141.1535058019 -204.9814705931 1687.8149590760
