-142.7122591864 -240.9957908890 1609.5781358476
-142.3705280223 -241.6691617494 1613.3678816759
-142.5902051279 -240.9980086798 1611.1496120002
-142.8098822336 -240.3268556102 1608.9313423246
-142.2222811828 -241.8101694292 1615.1501065420
-142.3490837926 -241.3278345817 1613.9564856681
-142.1746441723 -241.6076321506 1615.9494592476
-143.0229985192 -239.2734243590 1607.1472519518
-142.7628324795 -239.8558158725 1609.9686730024
-142.6327494597 -240.1470116292 1611.3793835276
-142.2832829625 -240.9751092261 1615.1273527146
-142.1011080090 -241.4096335314 1617.0785496528
-142.9494623560 -239.0754257398 1608.2763423569
-142.4511617628 -240.3130334756 1613.5685584379
-142.1722446470 -241.0137393712 1616.5235158572
-143.0205989940 -238.6795315796 1607.7213085614
-142.7044733542 -239.4826150099 1611.0623277041
-142.3734643048 -240.3266494542 1614.5577715363
-142.0424552554 -241.1706838984 1618.0532153685
-142.8908096024 -238.8364761068 1609.2510080727
-142.8166861827 -238.9069799468 1610.1421205057
-142.2850447320 -240.1696018490 1615.8412866309
-143.2084033834 -237.3621365289 1606.5049338601
-141.9510489008 -240.6882459729 1619.6728091005
-142.1335174825 -240.1194704380 1617.8406011484
-143.0601565440 -237.5031442087 1608.2871587262
-143.3096004688 -236.7500891113 1605.7600396718
-142.0820128054 -239.9942965276 1618.6190655334
-143.1914140768 -236.6749435339 1607.3524041451
-141.9117344799 -240.0624794987 1620.7519164196
-142.1686201095 -239.2889488944 1618.1475850205
-143.4342971816 -235.5396102549 1605.2594643935
-142.1438954699 -238.7564826358 1618.9532786641
-141.8762877254 -239.3593496563 1621.8519120594
-141.9739107725 -238.6904143775 1621.2051185364
-141.7732783712 -239.1090018354 1623.4088408294
-143.4143210933 -234.5270269396 1606.4430133160
-143.5226662552 -234.0287552446 1605.5019177969
-141.9229933520 -238.2967380080 1622.2215608935
-143.6012445980 -233.6123855774 1604.8696716566
-141.6967554263 -238.5856128960 1624.8740098720
-142.0206163991 -237.6278027292 1621.5747673705
-141.8199839978 -238.0463901871 1623.7784896635
-143.6768361590 -232.8706255899 1604.5735041538
-143.6592595959 -232.4519350539 1605.1829964667
-143.5925778810 -232.5019633869 1605.9968965551
-141.9259296345 -236.9542257128 1623.4114507539
-141.8000079094 -237.0338068718 1624.9620385859
-141.7187364132 -236.9905349892 1626.0493523497
-143.7619248226 -231.1686314888 1605.0330472086
-141.7511458866 -235.7003718957 1626.8114038453
-143.8285560383 -229.4507005403 1605.7451156182
-141.7791004371 -234.7560746295 1627.3145890482
-141.8734430742 -233.8960002599 1626.8848851766
-141.6731043012 -234.1803364883 1629.2075964556
-141.7897720527 -233.2588355979 1628.5462555500
-141.8075917448 -231.8753722888 1629.5817207210
-141.7938828482 -231.3793183846 1630.2121013546
-141.7953509895 -230.7080622370 1630.8070462848
-145.4655765897 -249.1018442101 1605.9793635998
-145.4183230174 -249.0322056802 1606.6596375862
-145.6577397886 -248.2268157016 1604.2284616313
-145.5596888751 -248.2994829764 1605.4496153576
-145.7555650682 -247.6160694019 1603.4820506083
-145.5231230178 -247.7285311987 1606.4293864081
-145.6609451067 -247.2077528295 1605.0799699329
-145.5918648368 -247.0645827454 1606.1107351980
-145.7732275039 -246.4218279722 1604.2977075172
-145.5153021702 -246.4036630370 1607.6935117007
-145.6676377851 -245.8422258666 1606.1895581569
-145.6021012841 -245.4871114478 1607.3597176686
-145.7979774772 -244.8036978732 1605.3921529193
-145.6781562747 -244.9373533501 1606.8451122484
-145.5836491301 -244.7980762902 1608.2056602214
-145.7033011072 -244.2608615447 1607.1087579197
-145.8300970304 -243.4342778860 1606.1719584355
-145.6594220783 -243.5757194114 1608.2844831803
-145.8188452309 -242.5903935715 1607.0593181298
-145.7062243830 -242.5691998915 1608.5536946005
-145.6444008762 -242.4057004067 1609.5071913313
-145.7783971540 -241.4242675911 1608.6118089886
-145.6984599438 -241.3788514861 1609.6991342172
-145.5532118666 -241.5163999872 1611.4818762542
-145.6873773697 -240.9385264403 1610.2304368840
-145.5336879518 -238.2714894613 1614.5828466477
-145.4210106954 -238.1157760250 1616.1959087942
-145.3627873659 -237.8748519617 1617.1701140958
-145.5151229808 -237.3134147913 1615.6661605521
-145.2937070961 -237.7316818776 1618.2008793609
-145.4460427110 -237.1702447071 1616.6969258172
-145.2354273581 -237.3562380581 1619.2937703384
-145.4458170772 -236.6321656822 1617.1716685205
-145.3477661637 -236.7048329570 1618.3928222468
-145.3258266493 -236.3622618904 1618.9806848771
-145.2566335626 -235.9500522938 1620.2488214939
-150.1116416182 -236.0837918281 1615.6846146332
-150.0382026455 -234.9031732307 1617.5551293159
-150.3997501327 -231.3864559249 1616.0688279503
-150.3490941960 -231.3101118473 1616.7481369224
-149.9715195484 -232.1330233945 1620.6592656954
-150.2631765327 -231.1182979786 1617.9519075773
-149.8620940673 -231.8642296652 1622.2126774723
-150.2198011983 -230.8867226135 1618.6711630929
-150.0804203028 -230.9675171725 1620.2995290718
-149.7939614068 -231.1486691471 1623.6336846742
-150.0321551589 -230.4065521588 1621.3509218801
-149.9616317056 -230.1756125768 1622.3998452458
-149.8299479151 -230.2368442791 1623.9507875801
-149.8233920946 -229.3647809075 1624.7524056254
-152.1587304833 -221.9253197341 1602.5066897395
-164.8774315405 -231.7039279483 1618.3954092797
-164.7325579822 -231.7550381469 1620.1035723833
-164.8119078920 -229.5281783135 1618.9560979886
-165.2064749056 -227.8866710087 1614.1591081571
-165.2243772337 -226.9993028068 1613.8631289199
-165.3072515659 -225.9384057676 1612.7865707089
-165.3186566936 -225.0683904494 1612.5686493690
-165.5446423729 -223.3734018145 1609.7484699626
-165.4612163963 -222.0850203816 1610.6051379088
-165.8057409559 -220.9129893901 1606.4417218948
-165.8452429727 -220.0518876270 1605.8943321508
-166.0338347226 -219.2963258452 1603.6043056737
-165.9061717400 -219.4693804562 1605.1218793532
-166.0687746883 -218.7832302093 1603.1440844656
-165.8850908657 -218.6861295567 1605.2942475002
-166.1558651954 -217.8789833500 1602.0330526253
-166.2364585020 -216.9920893744 1601.0000786823
-166.0854336196 -216.5558961496 1602.7336047767
-166.3432135484 -215.7834557103 1599.6285256965
-166.4083584906 -215.3575987194 1598.8215992696
-166.7360183509 -213.5589670084 1594.7960777732
-166.3031598872 -214.2952790013 1599.9560251758
-166.6285387219 -212.6706503539 1595.9740879474
-166.6657597131 -211.9835516544 1595.4702824713
-167.0601537887 -210.5943725032 1590.6996400931
-170.5124474005 -230.1257953608 1626.3078974529
-170.7819782279 -229.0431499223 1622.1977968512
-171.1344231469 -227.7993957783 1616.8953082237
-171.1869427060 -227.1042006467 1615.8917228414
-170.4021771755 -229.0282952845 1627.3445663124
-171.0050662942 -227.2066549044 1618.4022380123
-170.6894581568 -228.0708528793 1623.0460509960
-171.2923472755 -226.2492124992 1614.1037226959
-170.9219694770 -227.1000625519 1619.4850407285
-170.5799188344 -228.0441570347 1624.5210610938
-171.1828079531 -226.2225166546 1615.5787327937
-171.3095492525 -225.5713123588 1613.5865520526
-171.4408481502 -223.8333245296 1611.0775885968
-171.4150112162 -222.2124545701 1610.7496085257
-171.6987630158 -218.6725617055 1605.4179157090
-171.6439933546 -218.6592137832 1606.1554207579
-171.7633787764 -217.5831467929 1604.0851864692
-171.4581649155 -218.1476851068 1608.4625311907
-171.8984469757 -216.1914408400 1601.6700424420
-171.7855038031 -216.3538652351 1603.2704037303
-171.7095801377 -216.4044345191 1604.3216746845
-171.9895052416 -215.0221294195 1599.9451058206
-171.7794843994 -215.2990403049 1602.9105039684
-172.0014187175 -214.3602085807 1599.5063766535
-171.9111487485 -214.0964545917 1600.6207111318
-172.0607459771 -213.2867729696 1598.2520888901
-171.9600817316 -213.3226786417 1599.6328916305
-172.0337552949 -212.5635663038 1598.3155403429
-174.6567157174 -226.2953277551 1618.2289863085
-174.5462506520 -225.9908112907 1619.5921299211
-174.7513947455 -224.9839193344 1616.1163970804
-174.8088935236 -224.2504256763 1614.8712056530
-174.7524319188 -223.8707422827 1615.4334078923
-174.2480410574 -225.2517205394 1623.3218773059
-174.8128881720 -223.4980522718 1614.3634913053
-174.1648466435 -224.4000554223 1623.9747877846
-174.7450574869 -222.5061913143 1614.7171904905
-174.9833871820 -221.6737579998 1610.8817741968
-174.8456514650 -221.9163901881 1612.9551509434
-174.8258707793 -221.0528387074 1612.7134196755
-174.8863270324 -220.6801486966 1611.6435030886
-175.0960036166 -217.9017529597 1607.0405310056
-174.9835412270 -217.9734231975 1608.6575317920
-175.1450907893 -216.9168853849 1605.7621113644
-175.2055470424 -216.5441953740 1604.6921947775
-174.9840790693 -216.9542928214 1608.0380068973
-175.0178025132 -216.1096210871 1607.0587985497
-175.0277506230 -215.1537712766 1606.3455732818
-175.3324900325 -213.7451715451 1601.2347294809
-175.2611640301 -213.4116373165 1602.0326787202
-175.2790244141 -212.8012080982 1601.4161459595
-175.3167039952 -212.1292466600 1600.4852838654
-175.3722054491 -211.7719397042 1599.4939496118
-175.2359677253 -211.7324318658 1601.3769334780
-175.4064282240 -210.8332212943 1598.4512769706
-175.4297427384 -210.1133623455 1597.6926975831
-175.3415935252 -209.2770802834 1598.4241903951
-175.4421875034 -208.6872791572 1596.6621508480
-175.6220582696 -207.8513491513 1593.6427939674
-175.5551877353 -207.5964785433 1594.4256251669
-175.6310077172 -207.0835926919 1593.0564972864
-175.5735474504 -206.8920026494 1593.7456281127
-175.6642318301 -206.3329676332 1592.1407532322
-169.4353664269 -229.7163332012 1620.2642058907
-169.3979896148 -228.6802562551 1619.1015969272
-168.7483326953 -228.2032025480 1621.5350925566
-169.1137157924 -227.3831451545 1618.7608452977
-169.2871670255 -226.5437428529 1616.8625742801
-169.1797912320 -224.9878293764 1615.3571989419
-169.3502112201 -222.8864096758 1611.8433000263
-169.0427633192 -222.1942038592 1612.3925480793
-169.2978005729 -221.5721854459 1610.3920435952
-168.7812480246 -220.9736049477 1612.0437773566
-169.1453232744 -219.1818301181 1608.0207258542
-168.9478056662 -218.9730027944 1608.6782117215
-168.7369776209 -218.7763281499 1609.4138737756
-169.3209134561 -217.9513103062 1605.6072979018
-169.1182256543 -216.8715830938 1605.1643128060
-168.7266372336 -217.0345283724 1607.2129318493
-169.7004380916 -215.7562652871 1600.9909132778
-169.3088496710 -215.9192105657 1603.0395323211
-168.9305716874 -216.0700031652 1605.0099751777
-169.4251968092 -215.2292365279 1601.6022993311
-168.8738831432 -215.5380139558 1604.5890326161
-169.6802340630 -214.6072181146 1599.6017948471
-169.1289203969 -214.9159955425 1602.5885281321
-168.9142300052 -214.8201384453 1603.4725234666
-169.6029259395 -213.6075992058 1598.6737144440
-169.8996179024 -213.2394227180 1596.8055050539
-169.1087163683 -213.7669483699 1601.1994097013
-170.1851383768 -212.4922813991 1594.5003149158
-169.1280281004 -213.2628606332 1600.4577432994
-169.7214120263 -212.5265076577 1596.7213245192
-170.1284498326 -211.9602921897 1594.0793723543
-169.1778230531 -212.6336499909 1599.4113912434
-169.4079628304 -212.3262368987 1597.9340627873
-169.7712069790 -211.8972970154 1595.6749724632
-170.3113491564 -211.2095547564 1592.2512584302
-169.9807271771 -211.1222542238 1593.6905061656
-170.3439713256 -210.6933143405 1591.4314158415
-169.2868610492 -211.4638935746 1597.3888442250
-169.6501051977 -211.0349536913 1595.1297539009
-169.8673500886 -210.0582758050 1592.8486210425
-169.6088660391 -210.0996942925 1594.1154782178
-170.1451458702 -209.5127695808 1590.8400974652
-170.0884573259 -208.9807803714 1590.4191549036
-164.9553696588 -232.1810978036 1622.5218006939
-164.6803059912 -231.5387295968 1622.8234238086
-164.7367166109 -230.6126943254 1621.4148242438
-164.9116412227 -230.2679405011 1620.2639657551
-164.7525199256 -229.6238807804 1620.0915632881
-165.0918958702 -228.8458069433 1617.7197101308
-164.7200010700 -226.8233700790 1616.6583409681
-164.8708579929 -224.4511048487 1613.0240365716
-164.8284153677 -222.8294340267 1611.1320849617
-164.7788073867 -220.7262503897 1608.6562402685
-164.4008462494 -220.7571128463 1610.2337918026
-164.4690159589 -220.2111302439 1609.2612117467
-164.5522526815 -219.6522536840 1608.2108942963
-164.8124361284 -218.0641901929 1605.1300781249
-164.8236457089 -217.1768367939 1603.9546907436
-165.2582042582 -213.9766134105 1598.1116091935
-164.9057834129 -214.0831480981 1599.6815595130
-165.0421228320 -212.9911828933 1597.7363994012
-164.6746349737 -213.1106115384 1599.3840871153
-165.2367081910 -212.5320749655 1596.3599299435
-165.6317584538 -211.8038854444 1593.8250007826
-164.9478633212 -212.1940871967 1597.1051737816
-165.9514736512 -211.1401657108 1591.6787585943
-164.7677954660 -211.3728950990 1596.7924989547
-165.1791985527 -210.9232981010 1594.5457157281
-165.8965356346 -210.1143618073 1590.5963110367
-165.3377703406 -210.2999517537 1593.1067113051
-166.2818489200 -208.3216865103 1586.7457221347
-165.8272669065 -208.1255322738 1588.3460773125
-164.5037656032 -237.4610118441 1622.0367087392
-164.1314573689 -237.2068231374 1623.0932270039
-164.2590147805 -236.3459411265 1621.2862008624
-163.7220726553 -235.9430454849 1622.7545668677
-163.7778959794 -235.1542054128 1621.3355786987
-163.8669588709 -234.5413480318 1620.0559325397
-163.4418092990 -234.5495923428 1621.7174383813
-163.4568651369 -233.9063771672 1620.6785515952
-163.2785934488 -233.1432718321 1620.2067277387
-163.5548739880 -231.7142986227 1616.9569036600
-163.0730461666 -231.1513696968 1617.9675606878
-162.7618162091 -229.6843335968 1616.9383687908
-162.6113832306 -227.5323981771 1614.2414927626
-162.2684776517 -226.6205859071 1614.1815166466
-161.9535566873 -226.3087636495 1614.9276045334
-162.3650684621 -225.6861209384 1612.3824270947
-162.3038442801 -224.9101482347 1611.4370210819
-162.0100890319 -224.8911167895 1612.5473371727
-162.0160530050 -223.8383026804 1610.9193359885
-162.3271370573 -223.3165186835 1608.9174117111
-161.6731474260 -222.9264904104 1610.8593598726
-161.5235693730 -222.1345682999 1610.2323208271
-161.5703008323 -220.9361292943 1608.2242182600
-161.8337984999 -220.2527709938 1606.1605595669
-161.7318068316 -219.6224231867 1605.5952549370
-161.5943026299 -218.7136929551 1604.7433296975
-161.4129030502 -216.4881745776 1602.0543902587
-161.1765350719 -216.4115095813 1602.8542759717
-161.5163127592 -215.8609088089 1600.6971365053
-161.1205658426 -215.2115295565 1601.2421479663
-161.4701444151 -214.4417209296 1598.7128437064
-161.2827808623 -213.2690166611 1597.6519054517
-161.4427229158 -211.2241040324 1593.9143843377
-161.3528050988 -210.4769481042 1593.1241935138
-168.3411346153 -229.8454799826 1622.2985250307
-168.8131465483 -229.4422586097 1620.2217081212
-167.2672882519 -229.8813675777 1625.7075958064
-166.7833178175 -230.0072906157 1627.4078502913
-168.1480953008 -226.2651375697 1617.5572632026
-168.2152746535 -224.9858143028 1615.4376686705
-167.7358581507 -224.9186931368 1616.8355316415
-167.7751402415 -224.0377262486 1615.3977449832
-168.0017426469 -222.2741708072 1612.0571686546
-167.8952634797 -221.2983034818 1610.9331892512
-167.8155342298 -218.4042620884 1606.8623195557
-167.6242159324 -217.1036462094 1605.5186813552
-167.6469855903 -216.1384251900 1604.0067237860
-167.9105931206 -213.5904249624 1599.3795565560
-167.4334535837 -213.4267816945 1600.6262237701
-167.4493923442 -212.7511269809 1599.5678534717
-167.2819910494 -212.0051077719 1598.9773401205
-167.6879532509 -211.2648698746 1596.6038395678
-167.3964307350 -211.0750690002 1597.2314540778
-167.9136918308 -230.1968652648 1625.3530171932
-166.8492572817 -230.1882353780 1628.4476943718
-169.0175897712 -228.6031217239 1619.7051070369
-168.2378397978 -229.0747961832 1622.6993800122
-167.5347939969 -228.8019806874 1624.3369593017
-166.6797623214 -228.4435806855 1626.2880717103
-168.1455824365 -225.9951898797 1618.2831183201
-168.2226422266 -224.8570588207 1616.3264610712
-167.6720268225 -224.1777764510 1616.9005527876
-168.1477161421 -223.6333432555 1614.6833369413
-168.1115422137 -221.5945364709 1611.6869069601
-168.1886909083 -220.3579951359 1609.5802588204
-167.5422619667 -220.5355175029 1611.7377244760
-167.1454994297 -217.8752038433 1608.8484743669
-167.9839110636 -215.5904308987 1602.9242972697
-168.0424838198 -213.8757426894 1600.1443840387
-168.0432839594 -212.9900502053 1598.7944660217
-167.2073616487 -212.5193354217 1600.5188981769
-167.3794348366 -211.4100921100 1598.3287850058
-175.2244517572 -226.3806321958 1627.8756371161
-173.0539981813 -226.1477658221 1633.7692706813
-177.0124707721 -222.9738485848 1616.6966811025
-176.3753249033 -223.0647205945 1618.7065956574
-176.6688451484 -222.0293649821 1616.0348233013
-175.8511835299 -221.9575617585 1618.2830769426
-176.1990737330 -221.1828089360 1615.9113702158
-176.3368234419 -220.6721259552 1614.6139415174
-175.4861548447 -217.6987786377 1611.8592185201
-176.0979405484 -216.3154152779 1607.6516783793
-175.1715390139 -215.7224064746 1609.2998007622
-175.8138718896 -214.8200132676 1605.8487532013
-175.5966995335 -214.0801738510 1605.1793011918
-175.3917460462 -213.5327224955 1604.8124462143
-175.1855626555 -211.7749841694 1602.3223492075
-175.3230048886 -210.9617294460 1600.4941100018
-174.7157912401 -210.9284281232 1602.1988961219
-175.1296553184 -210.0015226664 1599.3682310416
-174.3538373132 -209.6953624288 1601.0831427728
-174.6299516826 -209.2791399527 1599.5499063908
-174.9781493616 -208.8069588727 1597.7090101713
-174.3226751896 -208.6092487907 1599.2650291782
-174.3883415889 -208.1545244138 1598.2752603174
-174.5135649531 -207.1488816293 1596.1444240797
-173.7959502796 -227.9106520206 1633.9890279969
-173.8458221712 -227.4370188675 1632.9224000417
-174.6555919426 -226.0696805437 1628.1003333894
-175.3067768344 -225.3804047866 1625.0334965849
-173.0467683618 -226.9712786443 1634.0935463192
-174.4928493208 -225.3570173071 1627.1178363072
-174.1678033932 -225.4330048231 1628.1188674340
-172.3463652990 -226.0955728401 1634.1962112369
-176.2486631869 -222.6078072083 1617.0882633221
-175.3817990762 -221.1300263534 1616.4367295189
-175.9741428715 -220.1715468570 1612.9918666517
-175.8877404399 -219.7124471551 1612.3106783770
-175.1050926875 -219.7683674523 1614.4698819500
-175.3511730355 -219.0121038624 1612.3310658261
-174.7435162199 -218.9116221133 1613.7230968470
-175.1884304137 -218.2994406258 1611.3485687440
-174.7621083502 -218.3586811837 1612.5816050409
-174.7780750912 -217.3790277148 1610.6036370453
-174.3565644904 -216.7903793617 1610.5436004303
-174.5914895602 -216.3658803296 1609.0896793900
-174.7389191617 -216.0195823208 1608.0193446258
-174.0400484516 -216.1078897808 1610.0232602839
-173.8635251622 -215.3002785628 1608.8891820958
-174.0284538573 -214.9383403493 1607.7421300764
-174.2633789271 -214.5138413173 1606.2882090361
-173.5879118101 -213.4013189366 1605.8575599762
-173.5852864207 -212.9746063974 1605.0210837866
-173.5550996961 -212.3579978957 1603.8814453850
-173.3372344039 -211.2655427338 1602.2926238790
-173.6019068822 -209.9563382143 1599.0123159490
-177.0276392821 -224.9412172132 1629.3058595724
-176.4658760390 -225.2699546678 1631.4618313972
-176.1030806784 -225.5149786216 1632.9241272913
-177.9707139294 -223.6760394559 1624.1618597095
-175.8195825351 -224.7843439591 1632.0959070056
-177.6872157861 -222.9454047934 1623.3336394238
-176.4561347912 -224.0453741488 1628.8696211235
-177.7292393035 -222.5674345283 1622.4170493592
-175.6039902918 -224.0990441584 1631.1889067599
-178.2648785510 -221.0302476001 1617.7457292569
-178.8240252725 -219.8065067558 1613.6835512340
-177.6209599558 -220.6544959345 1618.6084728906
-178.3861992858 -219.6766187187 1614.5386230125
-177.5402130604 -216.9192884706 1610.8337600331
-176.9378347565 -214.5952778464 1607.4248372564
-175.4598044793 -212.0114911480 1605.7260580367
-176.9515542835 -224.6536133202 1631.5213286118
-177.6941078514 -222.9095960804 1625.6813931574
-176.2426114254 -224.1156943049 1632.1528124912
-178.0691946264 -222.3149314096 1623.3739782180
-178.9249611912 -221.2463817662 1618.7563437330
-175.8872214591 -224.0163003998 1632.8514875671
-176.4498516217 -223.1243033935 1629.3903651580
-178.2764348227 -221.3235404982 1620.6115308849
-177.8729768774 -221.2715350904 1621.5412279154
-176.5722499912 -222.1041149645 1626.7833347643
-177.8792707962 -219.1289695133 1616.7164106281
-177.7177181362 -216.5896776958 1611.4365609472
-177.8834559564 -215.4143224230 1608.3688889474
-177.7636773566 -214.9702076853 1607.6828345991
-177.3489252800 -215.0417767897 1608.9191585993
-176.8540599051 -215.1923267228 1610.5405191905
-176.4400905237 -214.1387238654 1609.2496247213
-176.7991546391 -213.5598553603 1607.0192171001
-176.4324705415 -213.5840359674 1608.0245191457
-176.3625969952 -212.7534015273 1606.3415765702
-176.0439808766 -212.7301936372 1607.1158566613
-176.3473570308 -211.6440257313 1603.8913654190
-175.9486276138 -211.6997986700 1605.0506821010
-175.6242285875 -210.7827716767 1603.8339903439
-175.1490600214 -210.2392630339 1603.8466110716
-175.5241467964 -209.6445983630 1601.5391961322
-175.0726208722 -209.6399814525 1602.6999151173
-184.2774897662 -212.5261973059 1619.4409141918
-183.7670238335 -212.7866464299 1621.6144234363
-182.7156751438 -213.1429318130 1625.4824510248
-184.5384800085 -211.6957497693 1615.9741522347
-181.5875167561 -213.1810480972 1628.4703356736
-182.0211729908 -212.6024298744 1625.4166834895
-181.3365057923 -212.7977758111 1627.8117515836
-180.3977570827 -212.9833017150 1630.8175728329
-180.1786982169 -212.5779161672 1630.0033110207
-180.4358502752 -212.2142839470 1628.1232206201
-179.5800523581 -211.9710744434 1629.4705103186
-182.8460750945 -208.8752541800 1610.7353738487
-182.2314531867 -208.2794690871 1610.2804120078
-181.5186720741 -208.0301129692 1611.2444862676
-181.2707316575 -207.2733884299 1609.3165649322
-180.4050987858 -206.2943310509 1608.2030190013
-180.0285823400 -205.7194226218 1607.2151428663
-179.1454381456 -204.9381480002 1606.8141044191
-178.2143658041 -204.1900432712 1606.6465825552
-178.3939405277 -203.6016050154 1604.2036835263
-178.1748816619 -203.1962194676 1603.3894217141
-178.1292564252 -202.9493001703 1602.6709353635
-177.5252371087 -202.9959998895 1604.3594748407
-177.5275400191 -202.7159106997 1603.4074719067
-177.3084811534 -202.3105251519 1602.5932100944
-177.1381180715 -201.7786066483 1601.2280973875
-183.1716157744 -214.5922080536 1622.0981580635
-182.1018652550 -215.0448321280 1626.2787264454
-181.8752018966 -215.1075131822 1627.0499386936
-183.7265640072 -213.8507538509 1618.1820134171
-182.9159568831 -214.2186484617 1621.4357919144
-183.2252141357 -213.9175307621 1619.6399731615
-181.4070289630 -215.0605838730 1628.0344895948
-183.2273048382 -213.6425573289 1618.6864795412
-182.5473147631 -213.8306004914 1621.0001162860
-181.8666277871 -214.1103014649 1623.6315842375
-181.5262842992 -214.2501519517 1624.9473182132
-183.3776464098 -212.9933926205 1616.0793929367
-183.1417120411 -212.1505197685 1613.7500819356
-182.3062907891 -211.5322268668 1613.6632947949
-182.8273651832 -210.9961366955 1610.5383901985
-182.0689626188 -210.8726696370 1611.9696462073
-182.0548133028 -210.6087204084 1611.0939414052
-182.0569040052 -210.3337469751 1610.1404477850
-181.4100908680 -210.4080839172 1611.9806756865
-181.4446616075 -210.1110620747 1610.8716044298
-181.5441924210 -209.7699434135 1609.4513779002
-181.0760194874 -209.7230141043 1610.4359288014
-181.1917903195 -209.3708712384 1608.9379134536
-180.7236173859 -209.3239419293 1609.9224643548
-180.2779565782 -208.4410681157 1607.9687455770
-178.9912993119 -207.6731638891 1608.4708893125
-179.0787715119 -206.7931225661 1605.2214643606
-178.5300953866 -206.7096564691 1606.2771281461
-177.9990530814 -206.4318505454 1606.6193406999
-178.1480008513 -205.9660014591 1604.6479165089
-177.8675278320 -204.6062543546 1600.6449847219
-176.8717970974 -203.8232300663 1600.3825921430
-176.8576477813 -203.5592808377 1599.5068873410
-176.2094408424 -203.8169334020 1601.9827776560
-176.4247424880 -203.1236718749 1599.0645357787
-176.8490736719 -202.5620691205 1596.0885328848
-176.3971407568 -202.5041156067 1596.9952949678
-175.9614478602 -202.4351378882 1597.8242682326
-176.8228657423 -201.7591972301 1593.3836296604
-176.2113202453 -201.4448545186 1593.7969550985
-176.2451940840 -201.2394904871 1593.0057150486
-175.7276041940 -201.3172916030 1594.5414636112
-175.6668255249 -200.8114415551 1592.9456316435
-182.2278275142 -216.5963863395 1619.2420281781
-181.3560401986 -217.1496591441 1622.9527844964
-181.5584612580 -216.7191777066 1621.0715644691
-182.3311479258 -215.8656593943 1616.5566621478
-179.5831402952 -217.2501168227 1627.0397075877
-182.1169413420 -215.0901611032 1614.3913746524
-180.0051385468 -216.2829869181 1622.8825779225
-181.3820194737 -214.8878224407 1615.2618424526
-180.7153385217 -214.3545404287 1614.8707801770
-181.0035402450 -213.3932238439 1611.0161120967
-180.2354569558 -213.1220449350 1611.7242740181
-179.8363690602 -212.5771362836 1610.7282885728
-178.4721474245 -210.8793834027 1607.8804879429
-178.2567899961 -210.3850594169 1606.6668855475
-177.7723050516 -210.2772611443 1607.3271197886
-177.2039575176 -210.2316741769 1608.3746602493
-176.9725948010 -209.5623429153 1606.6040623646
-177.0739971381 -209.3002398123 1605.5048381676
-176.5895121936 -209.1924415397 1606.1650724086
-176.9264970111 -208.5686972456 1603.3469340631
-176.2902921757 -208.7603288591 1605.3387762330
-176.2258874083 -208.1540245241 1603.4280226421
-175.6910849101 -208.0835530346 1604.3206406150
-176.0639164527 -206.8725756078 1599.4442095816
-175.2096688847 -207.2259566146 1602.4430479227
-175.5985057153 -206.1899864636 1598.1236123787
-174.8784382905 -206.4438293822 1600.5027607683
-175.0972482529 -206.0946304521 1598.8613078637
-175.2489681437 -205.7952005660 1597.5296999349
-174.4797340099 -205.8051959624 1599.1895469563
-174.9165867049 -205.2942476390 1596.5410978805
-174.4820356992 -205.2428473518 1597.2861767563
-180.9026072033 -217.8516541305 1622.7915424943
-180.1865435502 -217.9943061228 1624.6869626071
-179.3007096470 -217.9896690565 1626.4002925628
-181.4271343615 -216.4292011455 1616.8078297491
-180.5847595520 -216.7475779184 1619.5625540104
-177.6513602680 -218.6019138744 1631.7551719057
-178.0125936173 -218.0869938963 1629.2545440499
-180.0304072954 -216.6899964020 1620.4441007947
-180.9346958270 -215.3577243405 1614.0333751459
-180.5525241371 -215.3574876498 1614.7787000684
-179.9909409308 -215.5697388317 1616.6151829093
-180.0906652094 -214.4413905824 1612.4863003230
-180.0319163123 -214.0406868744 1611.2038785885
-179.6497446223 -214.0404501837 1611.9492035110
-179.2796245152 -213.5904923291 1611.1029683391
-179.6738477879 -213.1410078558 1608.7660833223
-178.6053641477 -212.8214476295 1609.7379836733
-178.3012238874 -212.5023607845 1609.2192341793
-177.7034125370 -212.1217654289 1609.0593866580
-177.6092633999 -211.7455704489 1607.9315341034
-176.9382412531 -211.5039367821 1608.3991369608
-177.1554633260 -211.1769959487 1606.8350978436
-176.9551134690 -210.8743271526 1606.1709528287
-176.4667410592 -210.9476166458 1607.3799852910
-176.2663912022 -210.6449478497 1606.7158402761
-176.0837414652 -210.3300246896 1605.9744106713
-176.3363637780 -209.9785751282 1604.2558023742
-176.5181856110 -209.6761430228 1602.8463324368
-175.6122412712 -209.7737045533 1604.9552590014
-176.0949651439 -209.2629482601 1602.2319510348
-175.7127934540 -209.2627115695 1602.9772759573
-175.6411650700 -208.6943737599 1601.1355147750
-175.0465919402 -208.8411894370 1602.8082547770
-175.5341364460 -208.1505446783 1599.4483227726
-174.9926636762 -208.2605972635 1600.8892090047
-174.5927918663 -208.2726149368 1601.7118185171
-174.5589740388 -207.5898241664 1599.3971761361
-174.1084121855 -207.5486606989 1600.1333273995
-174.1534536917 -207.1643750398 1598.7055101441
-174.0214939981 -206.9026330205 1598.0505387883
-180.3099014280 -217.8000166111 1627.4721254035
-179.7958622183 -216.8617022371 1625.1591989673
-178.4887163724 -217.4728402769 1629.6737107538
-177.4184271080 -218.0121625886 1633.5051969724
-181.6690318281 -215.1928652430 1615.9389720064
-180.3377405196 -215.9053023040 1620.8490860738
-177.5467925053 -217.6711695073 1632.0872555905
-180.9826075458 -215.3070134061 1617.5924464290
-180.7020580832 -214.6402526927 1615.7936793170
-181.2854936405 -214.1679934944 1613.0867316458
-180.5947981085 -213.7732702442 1612.9829511534
-179.0731323131 -212.6504433870 1611.8760066126
-179.1828547071 -212.3218156449 1610.5351100770
-178.7925828505 -211.9836826736 1610.0772395006
-178.8463762351 -211.6921509492 1608.9674775041
-178.7883116007 -211.4748112602 1608.3199845856
-177.8573926525 -211.4952731267 1610.0964145531
-177.8158353964 -211.0111323919 1608.4932493308
-177.0826781931 -209.2800276048 1603.8318638091
-176.5191168486 -209.1421163686 1604.3859542843
-176.6212011583 -208.6479866018 1602.4849877259
-176.0784184418 -208.7521457330 1603.8406608123
-175.6288507412 -208.7944781679 1604.8111096671
-175.9470130045 -207.9864623057 1601.4255349297
-175.3483012786 -208.1277174545 1603.0123425551
-175.8253812764 -207.6407166097 1600.4491065273
-175.4503855884 -207.6335876878 1601.1113759967
-175.4219688760 -207.2260152956 1599.7497233627
-174.7486851374 -207.4167318015 1601.6447103735
-175.2630511416 -206.9050002782 1598.9273846530
-174.8782817443 -206.4779336249 1598.1509566420
-174.2774343935 -206.3647530671 1598.8591368100
-174.2193697592 -206.1474133781 1598.2116438915
-174.2358771374 -205.8806123322 1597.2559715877
-174.2337415126 -205.6261766256 1596.3773441302
-173.6218892429 -205.6908634317 1597.7226391674
-173.6011106149 -205.4487930643 1596.9210565562
-173.8413340310 -205.0336079476 1595.0408460963
-182.0344045784 -211.7583980720 1630.1338370183
-184.2386368481 -210.2255286881 1621.3909109667
-183.3964828752 -210.7233140487 1624.4482982890
-184.3396546690 -209.7159478364 1619.5754571440
-184.8316412803 -209.2859438330 1617.3410734351
-181.4071499636 -211.4916745941 1630.3581581204
-180.7218892364 -211.2652897841 1630.8125562238
-181.8798807963 -210.2842657733 1625.6535578019
-179.1751391655 -211.5501365573 1634.4010339834
-183.4504663890 -207.9619209589 1615.4625776681
-181.7858121823 -205.7806412972 1611.3130242056
-180.1124760418 -204.4840611123 1610.0274550506
-180.0609415838 -204.2563006927 1609.3829982929
-179.5153694190 -203.4934425857 1607.8685579061
-179.2726915326 -202.7835440035 1606.0015739377
-178.4176738431 -203.0266764992 1608.2611198347
-178.4241454974 -202.7585774116 1607.3865860757
-177.9988469322 -202.2635432702 1606.5269084756
-177.7024243082 -201.9424846578 1606.0049182981
-177.9581250954 -201.3253340247 1603.5759258051
-177.3845356260 -201.4606216171 1605.0021620596
-177.7497769836 -201.0308927356 1602.9875493229
-177.2921997390 -201.0855029921 1603.9536315747
-177.3137453893 -200.4554563802 1601.8874886924
-177.4641669808 -199.9993852972 1600.1590332326
-176.5425408373 -200.3767048976 1602.9657314952
-176.6950931162 -200.0948844654 1601.7947344302
-176.4395515133 -199.1303330184 1599.1299090365
-175.8466266731 -199.2790668335 1600.6328376248
-176.3085448846 -198.7821068387 1598.2347632192
-175.8316322692 -198.8501633178 1599.2775378048
-175.6490911826 -198.2741767185 1597.7379352298
-183.3856633264 -211.4234427486 1625.0376294072
-183.8325689285 -211.0276858359 1622.9538340562
-182.2174397092 -211.9757594317 1628.8427648881
-184.4007924441 -210.4619199964 1620.0912881333
-182.7282065739 -211.4498314721 1626.2105209851
-182.1664492881 -211.6675439369 1627.8772481196
-181.0301254931 -212.2836352005 1631.8469954527
-183.4497094434 -210.5201110787 1621.8561640863
-181.5025879239 -211.7842658275 1629.3682862296
-181.5409539760 -211.4999870332 1628.3370792933
-180.5323527062 -211.8557362031 1631.2099295225
-179.9641908088 -212.1637818348 1633.1948031891
-181.4453161274 -211.0509430843 1626.9655714805
-180.7430887111 -211.4519437692 1629.4878165267
-180.0281136895 -211.7758905803 1631.7686823808
-183.9479751753 -208.8862484146 1615.4718519659
-183.0414779840 -209.3429881587 1618.5203912195
-183.5906109008 -208.5327814048 1614.8569403803
-183.2905800409 -208.6549169305 1615.7670712874
-182.9905491811 -208.7770524562 1616.6772021946
-178.5090536458 -211.3689666713 1632.8854152313
-183.1311425478 -208.0783238208 1614.0663397702
-182.4674044199 -207.6796052960 1613.8020333675
-182.2760054864 -207.2969578135 1612.8143622544
-182.4101326234 -206.9462825528 1611.3993186184
-181.7337085083 -206.2127899466 1610.0159607673
-181.2423403331 -205.6945577822 1609.0607483050
-180.5784789688 -205.8112796727 1610.5517864150
-180.5976928040 -205.5402801717 1609.5973468187
-180.0871724118 -205.0353273006 1608.7189016964
-179.3850066136 -205.1786077777 1610.3634744863
-179.4617387178 -204.6100501892 1608.3010606139
-179.4618003359 -204.3523299815 1607.4233883575
-178.7404823208 -204.5088897519 1609.1447284874
-178.7405439389 -204.2511695443 1608.2670562311
-178.2108713298 -203.7594959664 1607.4653784487
-178.1535379151 -203.2838934309 1605.9403359559
-178.0961428823 -203.0660111031 1605.2929657195
-176.2772984512 -201.7503418890 1603.8091404519
-176.6094139877 -200.9188203207 1600.4306046279
-176.1498223985 -200.9798031520 1601.3953485305
-176.6222848292 -200.4804337790 1598.9166393074
-176.0095371223 -200.3899307490 1599.6178496733
-175.8948086749 -199.6964458857 1597.4454369440
-182.9402901711 -210.8347915976 1625.3551622530
-185.1191825631 -209.3346305832 1616.6002191197
-182.2515455889 -211.0527750412 1627.2416334741
-182.5560084465 -210.3307228999 1624.2563741995
-183.1539875688 -209.5773957913 1620.6790479163
-184.3437992165 -208.1603785478 1613.8427438198
-181.1198334077 -210.2946644815 1626.5032145561
-182.8789979873 -206.9483583424 1612.0934920780
-181.9527298129 -206.6466356047 1612.5851417414
-182.2005266974 -206.2198129983 1610.7085233702
-180.4817819867 -205.5242523729 1611.1542384695
-177.1406182142 -201.9316847045 1604.3173501601
-184.3322247065 -210.3892873862 1622.1698381188
-184.9850539611 -209.6831500693 1618.6817492805
-182.5344038209 -210.7747671791 1626.4330122465
-184.3455288254 -209.1848243237 1618.0207937511
-181.2229601150 -210.7396031712 1628.4587948441
-183.4114948865 -209.2310192253 1619.7077049449
-179.5274545825 -211.2253117851 1632.8979710291
-181.0459128669 -205.8243404594 1611.9056700730
-179.1340978769 -203.4709229195 1606.9701666431
-176.6722024167 -200.8990364311 1602.1862954772
-176.2697014216 -199.6396808440 1598.5296504062
-175.7451456108 -199.5743734865 1599.1643405136
-183.3864986910 -210.7368057219 1625.8737826757
-183.0084262288 -210.9112567193 1627.0906538874
-181.6565648138 -211.4137140789 1631.0257352358
-182.1054758704 -211.0202615769 1628.9419345717
-181.0097228336 -211.5172004529 1632.4390285845
-180.9525072390 -211.3009581900 1631.7910927998
-184.7736199303 -208.5065803506 1615.9560001894
-184.3570831184 -208.7074454643 1617.3263910232
-180.3957360280 -211.1722360013 1632.2606968849
-183.6788287533 -208.4917923522 1617.6966637664
-184.1662041596 -208.0719257339 1615.4593434801
-179.0124622282 -211.3555538747 1635.1527576280
-183.5704876690 -208.2254810986 1616.9606824052
-183.7192168228 -207.4419244870 1614.0302832727
-180.6891899344 -204.9230978010 1610.3504594988
-180.2154375279 -204.9077206519 1611.0729145479
-179.3655363789 -204.0433407512 1609.4993799370
-178.8739945874 -203.2735803485 1607.6639491434
-178.5869547544 -202.7040959087 1606.1807006557
-178.0442874732 -201.8842665152 1604.2572242857
-176.7094155676 -200.1604360467 1600.5299338716
-176.8379506866 -199.9018133677 1599.4327249859
-176.2300539860 -199.7230221882 1599.8142834945
-175.5654226207 -199.0721253086 1598.6696910005
-175.8159218238 -198.6445701158 1596.7935982388
-181.6509487273 -211.6919992144 1631.8351406282
-183.8592874667 -210.1762011339 1623.0902746726
-183.8829841871 -209.3962563176 1620.3786485681
-180.2619755749 -211.6271475812 1633.8449915248
-182.4703143142 -210.1113495007 1625.1001255691
-181.8573674786 -210.4472213739 1627.2364864730
-181.1475636808 -210.8495756191 1629.7563941294
-179.6504705153 -211.7074700071 1635.1030468441
-181.8588092546 -210.1916719266 1626.3581808884
-180.2981059650 -210.9235215976 1631.3749943816
-183.2191320542 -208.4942703773 1618.3536096003
-178.6518087639 -210.8655899914 1633.8220995616
-182.8374713092 -207.7380020758 1616.3745742715
-177.8480315558 -210.8233277139 1634.9689428011
-182.9372118235 -207.1604208092 1614.2344163497
-182.7810700650 -206.3342101223 1611.6532071268
-182.0533366507 -206.4943113945 1613.3715185489
-180.8086139015 -204.8030877566 1609.5745704842
-180.5402979592 -204.4781395034 1608.8918902217
-180.0797098684 -204.0306065468 1608.0979978795
-179.3921610150 -203.9085654229 1608.7845850161
-178.2179861127 -202.2537711947 1604.9991378611
-177.1956276408 -202.1918359954 1606.4298166830
-176.6396243638 -201.5552359634 1605.1411655086
-176.9440706962 -201.1765582330 1603.3538486279
-176.4363603216 -201.1007829798 1603.9100188830
-176.9969600839 -199.7826027404 1598.4905636919
-176.0879464147 -200.1519875894 1601.2175975802
-181.4335114140 -213.8689876897 1628.4008487326
-181.8388012903 -213.5031633966 1626.3860692837
-180.1649492810 -214.3512522523 1632.1120221772
-182.2634482345 -212.8791963463 1623.3327034142
-179.9259631628 -214.4373749479 1632.7926476117
-181.6566207993 -213.1418311353 1625.2330352598
-183.7551197528 -211.6697752292 1616.4537164968
-180.7920829663 -213.5852447198 1628.2115290587
-182.8905819198 -212.1131888137 1619.4322102957
-180.1481233659 -213.9554483797 1630.5864089912
-182.2466223194 -212.4833924737 1621.8070902282
-178.9354176778 -214.2354879716 1633.4254978299
-181.0339166313 -212.7634320655 1624.6461790669
-181.9552600915 -211.8725635240 1619.8340258096
-182.8759707634 -211.1451816400 1615.6629224540
-179.5996835283 -213.3619115681 1629.0504566244
-183.3917079531 -210.7018807203 1613.1860735965
-182.6382502217 -210.9043310207 1615.0614480852
-182.1069526932 -210.6248547529 1614.7305839534
-182.1269425493 -210.2032253381 1613.0509476313
-181.9263541727 -209.8548058479 1611.9749251754
-181.3937910679 -209.9023028950 1612.9261608470
-181.5235954491 -209.5666835111 1611.4255050179
-180.9910323443 -209.6141805582 1612.3767406894
-180.6076306886 -209.0679154641 1610.7887341113
-180.7742508409 -208.7064705379 1609.1340551459
-180.2416877361 -208.7539675851 1610.0852908175
-180.3530842317 -208.4312609722 1608.6616465565
-179.1441752728 -207.7303806192 1607.6544359853
-177.6626283655 -206.3240152168 1604.2766244767
-176.7441324522 -206.4791937996 1606.2040531766
-176.6536749949 -206.1350410115 1604.9864862630
-176.8752024097 -205.8166011008 1603.4212975442
-177.1151377102 -205.4852484189 1601.7790972574
-175.9401969755 -205.4942324823 1603.5025881074
-176.1065007337 -205.2145308849 1602.1684340929
-176.2175808352 -204.9735676008 1601.0653147827
-176.0547574120 -204.3540925822 1598.8736943382
-175.2641675154 -204.6641117535 1601.2236169139
-175.4672870447 -204.3585846139 1599.7354397632
-174.7335027751 -204.2211488282 1600.2517028805
-175.0296109145 -203.6058278469 1597.4168930369
-174.9569285546 -203.4122489451 1596.7633644569
-174.2771023653 -203.5630481611 1598.3306926732
-174.1869613021 -203.1371520442 1596.7926008088
-174.3167656833 -202.8015326602 1595.2919449796
-184.1053592168 -211.0688752856 1618.7054465709
-182.0771869938 -212.2375315220 1626.2150137717
-180.8973564345 -212.7363903392 1629.8607676963
-180.9896453329 -212.5919960984 1629.1547821952
-179.7914618040 -213.0233489447 1632.5566717565
-181.8936572977 -211.5624718143 1623.7763701383
-183.9958527913 -210.1015946839 1614.9960685200
-181.4880577898 -211.7640747886 1625.1499297572
-182.8900455026 -210.3082326071 1617.3710880272
-183.0566196969 -209.6306554250 1614.4317144497
-178.1148782809 -212.8240361053 1634.1104716126
-177.8203573498 -212.5471473973 1633.4174873289
-182.0069194180 -209.0759630711 1613.6877124113
-182.2468181490 -208.7487304545 1612.0446808401
-181.8413933245 -208.7896920640 1612.7764713531
-180.4238475777 -207.6077664367 1610.0431430246
-179.9078682269 -207.6452956337 1610.9161701225
-180.0187721202 -207.3274453164 1609.4913953258
-179.5027927694 -207.3649745134 1610.3644224236
-179.6505772855 -207.0214947727 1608.7856072476
-179.2455018280 -206.7411736524 1608.2338595487
-178.6373209205 -206.8427764077 1609.4919875948
-178.6191426343 -206.6146290721 1608.6063541255
-177.9561648432 -206.2727518678 1608.1702354226
-178.1779726298 -205.6370512331 1605.3206858291
-177.4960304769 -205.7899128351 1606.8868946337
-176.8146123744 -205.4608503425 1606.5277961204
-176.8701953337 -205.1814441602 1605.3340818926
-176.8151364249 -204.9789262479 1604.6024888025
-176.7050186072 -204.5738904233 1603.1393026225
-176.3180340941 -204.6020373210 1603.7940729459
-175.5629420880 -204.2439129927 1603.4221706382
-175.4894428678 -204.0542097920 1602.7675977378
-175.4897048931 -203.8132477447 1601.8049440789
-174.9558966231 -203.3013468763 1600.5087994955
-175.0853281695 -202.8903611649 1598.6861199562
-184.5126610363 -210.4518031706 1619.0622514573
-183.1854993037 -211.2324359478 1624.0470954266
-184.7058213502 -209.8249610001 1616.2898837896
-182.0899646989 -211.5220310626 1626.7469445846
-182.0290161556 -211.0758948357 1625.0536055868
-183.2610936280 -210.0365606095 1619.1710893815
-180.3708119383 -211.7656245400 1630.1427325136
-182.6171592911 -209.8418468964 1619.3025818200
-179.4941676995 -211.9811386675 1632.2384598591
-178.4755667222 -212.5423427989 1635.9130547294
-180.5447388453 -211.0708801153 1627.1266784179
-183.6281808490 -208.7149740144 1613.3826676181
-178.4520022184 -212.1512012587 1634.3863286833
-182.8582748577 -208.6914230946 1614.3744342961
-178.0632595131 -211.8565914234 1633.7595523565
-182.6114888910 -208.0511232556 1612.1687904444
-181.9152682046 -208.0567518877 1613.1730231212
-181.9120198820 -207.8143224231 1612.2107434077
-181.4869759113 -207.5455277227 1611.7381140337
-181.0800825732 -207.2638254549 1611.1884111833
-180.9283808667 -206.8822270649 1609.8804395676
-180.1980244634 -207.0752904748 1611.6803390062
-180.1733771854 -206.6033391131 1609.8328530556
-180.1701288628 -206.3609096486 1608.8705733421
-179.4397724595 -206.5539730585 1610.6704727807
-179.4365241369 -206.3115435940 1609.7081930672
-179.3606732836 -206.1207443990 1609.0542072593
-178.7519574379 -205.8194057295 1608.7107928405
-178.6761065846 -205.6286065346 1608.0568070326
-178.6547076293 -205.3990846374 1607.1716007955
-177.8249358690 -205.0102073122 1606.7907883802
-176.8862603127 -204.6987753914 1606.8724168233
-177.3346122581 -203.9720370988 1603.3417803904
-176.6020903064 -204.0034808657 1604.5001600200
-176.1908658715 -203.3985393118 1602.6674175516
-176.0210135323 -203.0298484892 1601.4365194123
-176.0359158423 -202.7745114573 1600.3971662223
-175.3919815055 -202.5797977441 1600.5286586609
-175.0213894327 -202.2722803415 1599.8248088576
-182.7687675879 -209.6766656376 1627.2083592183
-182.2136238785 -209.8253887022 1628.5548393077
-184.3196909970 -208.3611564159 1619.7760244962
-182.5452452716 -209.3575929095 1626.2049763186
-183.7457678412 -208.4438565497 1620.8782669548
-181.4912961921 -209.8531078314 1629.6306493896
-180.6590383881 -210.1944930390 1632.1322366911
-180.6211743219 -209.9835801035 1631.3225166513
-182.7272414404 -208.5193478172 1622.5437018398
-180.0663357859 -210.2111702419 1632.9902415189
-181.8026122716 -208.9249537391 1625.4303248786
-183.9086793901 -207.4607214527 1616.6515100670
-181.4328216387 -209.1029695226 1626.6492230497
-183.8335616044 -207.1966297292 1615.6745595440
-180.8958470289 -209.1599813707 1627.5974512134
-179.1589601963 -210.2884637260 1634.5148782973
-179.7680008574 -209.7068728641 1631.3311528743
-184.0909807322 -206.7013434342 1613.3114803665
-183.7205797525 -206.7216250702 1613.8878889812
-182.4440238770 -207.1346684853 1617.2739134872
-182.6266303926 -206.4541575405 1614.2551285648
-182.4391411020 -205.8727953054 1612.1339970355
-181.5123757191 -205.7263317111 1612.7719066266
-181.3248864285 -205.1449694761 1610.6507750972
-180.4359851119 -205.2094188173 1612.0984047281
-179.7854183032 -204.6336918589 1610.6174727725
-178.0963249536 -203.7519649421 1609.2727589582
-178.1496115584 -203.1613629973 1606.7930240682
-177.5569089562 -203.1780402002 1607.6510288960
-177.7225670660 -202.9047087670 1606.3154750123
-176.6267866655 -202.1640387948 1604.7552459266
-176.4765510942 -201.6358553477 1602.8013448805
-175.7714769870 -201.3352620391 1602.5151687020
-175.8250687652 -200.8235271681 1600.3566785902
-175.6197155485 -200.4127432234 1598.9550437647
-175.0830461121 -200.5486221452 1600.2245167067
-175.1738916097 -200.0900660621 1598.2332570782
-174.5260713620 -200.2241427674 1599.6435281267
-181.7171297748 -205.7602961785 1622.2030866969
-180.9801276758 -206.0397110840 1625.1491539189
-182.1019046023 -205.4845391453 1619.7562510024
-182.1939553603 -205.2372202837 1617.9020173272
-179.7297604665 -206.2406430863 1628.2364068916
-181.4747250133 -205.1481761670 1618.2461335957
-179.7996475183 -205.8487844331 1625.4006530370
-178.5788319172 -206.2424361577 1629.7965995823
-181.9515505988 -204.6251002722 1613.9450642260
-178.2491683373 -206.0299746765 1628.7533346360
-178.4328698678 -205.8959960984 1627.5688839389
-181.0486187214 -204.6700347336 1615.4736311915
-181.3886661512 -204.4658572621 1613.5877717912
-180.7189551416 -204.4575732524 1614.4303662452
-180.4687624926 -204.1579324555 1612.6702564039
-176.6321980379 -205.7775455449 1629.1614556966
-180.0748037714 -203.7683510061 1610.4741664857
-175.2580324854 -205.7765772796 1631.0025132053
-179.0876090235 -203.7481251146 1611.6601238663
-179.0133300175 -203.6269849541 1610.9124065879
-178.9911663114 -203.4824451624 1609.9308864085
-178.9690026052 -203.3379053707 1608.9493662290
-178.3314391662 -203.4181813451 1610.3683731690
-177.6251886317 -202.8083385375 1607.0510840041
-177.0471283946 -202.9133948114 1608.5634614361
-177.0153808093 -202.4641756822 1605.4630322970
-176.4025770390 -202.5848317102 1607.1312783298
-176.8768066620 -202.1659155535 1603.5624900467
-176.2118875919 -202.3099712126 1605.4645389806
-176.5149955115 -201.8648940883 1601.9428126145
-175.7458458418 -202.0557490096 1604.3124673504
-175.4161822619 -201.8432875285 1603.2692024041
-175.5751241238 -201.6689288969 1601.8355126142
-175.7861812854 -201.4711706341 1600.1680199233
-175.0170316157 -201.6620255555 1602.5376746592
-175.1933452441 -201.4798670468 1601.0260505690
-175.4243701348 -201.1701491689 1598.5483424910
-174.7420792981 -201.3220047050 1600.5283257252
-174.9309727536 -200.9797066505 1597.8793128547
-185.0730116604 -212.4441982362 1616.2747875253
-184.0118320461 -212.5894600026 1620.3099443929
-184.5266027652 -212.3737488265 1617.8850177536
-185.0793130861 -212.0738509224 1615.0615702977
-183.9320409390 -210.8421446919 1614.9541338132
-184.3563736514 -210.5776572161 1612.6762571558
-183.7454281185 -210.0089560975 1612.8997380073
-183.1869809905 -209.5732180066 1613.3746896934
-183.5025360379 -209.2650128638 1611.3218017035
-182.9991078850 -208.8140988750 1611.5629373331
-182.3723432641 -208.1023174635 1611.3790699790
-182.3090669116 -207.5299962918 1609.7496771568
-181.8385372201 -207.2911734261 1610.5628657520
-181.2642710039 -206.7123550423 1610.6304692325
-179.9424242692 -205.0127488986 1609.6039154843
-183.6057572245 -214.4429594076 1614.3993350566
-182.8585780546 -213.3585009224 1613.5221682499
-182.1112274989 -212.4459088982 1613.1224077183
-182.0387040027 -211.9670320940 1612.0005095305
-182.2032958020 -211.6266066000 1610.5861786846
-179.6511768787 -208.7011685655 1609.7509472474
-179.2503267131 -208.0438104442 1609.0706793768
-179.3971732564 -207.1969662119 1606.3017098653
-178.6493942361 -206.7140403402 1607.0954650210
-178.0476905231 -206.1576693108 1607.2685789025
-177.6471831290 -205.1565782674 1605.6334984820
-177.1186027625 -204.4775514286 1605.2575885889
-176.7727022228 -203.6207849122 1603.8671739655
-182.9754121187 -215.2201660470 1618.6495793177
-181.9369809801 -215.1694690749 1621.3177299723
-181.7446303202 -214.0789939349 1618.5034895534
