108.6608844997 -283.1935918806 1697.5383840297
105.7821262202 -283.2889931873 1708.2669330608
108.3933900034 -283.0631436646 1693.8587810350
110.2539369516 -284.8443665856 1699.0333760658
101.0242560669 -283.0956651063 1716.3571406457
106.7256960652 -284.5325746032 1704.9008375424
105.4871410733 -284.1768806526 1706.2694248852
94.6098810346 -282.5262677011 1720.0177391009
106.4493323741 -285.7377024702 1703.2547303164
101.9679317570 -284.6768965353 1711.4090995582
103.8870313875 -284.0555687393 1708.4911200954
100.0693102424 -283.3350994344 1718.3596538304
109.1573562552 -286.3128620314 1702.8752559447
109.6690308094 -286.5536655121 1698.6827569689
103.3196314567 -284.1512922426 1713.2870929829
100.3464696448 -281.2132464779 1717.9155847871
100.5843474832 -280.9465495288 1716.1407872347
98.5149228996 -279.5281953302 1718.6162569501
107.8520948306 -285.9838074332 1705.9454385487
110.4651935688 -287.3555692128 1693.7817230277
108.2396498321 -285.5734209183 1698.0526382325
98.7295301727 -277.9229028618 1728.4685846223
108.0060461484 -286.1223614497 1704.1762218868
107.0932573585 -287.0775940619 1701.6102995122
107.4737441588 -286.9546924184 1693.7434865285
103.3450631226 -286.1887815860 1713.5496074051
98.5516914736 -283.4937262692 1720.6456364931
102.9494413043 -287.5852655402 1704.5468628707
102.3040441176 -287.0151448296 1706.6355149406
105.5756904293 -290.8723978958 1698.4526085838
103.1999594924 -288.2633003190 1708.4347796054
100.3399304461 -285.5650116606 1716.9807423903
103.7996684799 -288.9953663697 1705.8587257751
103.9609040740 -289.0069242250 1701.4309946786
105.8729923310 -291.6122464294 1696.7199658610
103.2556800616 -288.8457253622 1703.1938236074
102.2843591489 -288.0092035429 1711.3607177432
99.7658313274 -285.3932365867 1718.9887357283
100.9230543593 -287.0664500944 1714.2204638837
96.7867929772 -282.4650240514 1719.5736390211
103.6335486755 -290.6699569807 1695.2841380472
101.5674918206 -288.5973832440 1713.2654434801
101.4780120628 -288.3666653859 1707.8103108569
102.9691271875 -292.0797559910 1698.3374294081
96.3438335129 -284.3246464833 1715.6213115362
102.7133524824 -292.2248731216 1701.0835801616
101.6057934088 -290.2304154815 1701.5616454834
100.0638199605 -288.9473847097 1710.9150116237
102.0147870837 -290.9509320379 1705.3173404332
93.8695748954 -280.1640725429 1721.8272819663
100.6357220524 -289.2998195078 1709.1694838229
100.3713879719 -288.8352132200 1706.4028260455
102.3658954567 -292.4751850528 1693.7249779261
102.7834794273 -293.6119368068 1697.4964428781
103.1229206124 -294.3774418732 1694.2103786624
100.3957629268 -291.0796404775 1707.3378098548
93.5826999647 -280.6682504095 1718.4870919877
96.4498218257 -285.9436462576 1713.8343386921
98.0833235318 -289.8034508957 1707.1820112796
99.7652881217 -294.8184780166 1699.2621073081
98.6453173339 -293.4895650618 1700.2212572098
91.6161066169 -279.7533059816 1721.5527315321
98.5366408120 -294.8452866992 1696.3619776931
95.0265081939 -287.6240736714 1709.8877742681
93.6121599970 -284.8842661068 1712.7490080963
93.2740115618 -287.5413581503 1708.9444057447
97.3854169635 -295.9836795313 1695.2171890769
95.9737545636 -292.6679009452 1703.2748003231
93.3359510200 -287.0621234599 1711.8862582389
96.3611304768 -291.7852927081 1705.6263301216
94.2867654876 -280.4572219648 1724.1753085611
99.2442142235 -296.5674486249 1694.7129561333
98.0898553340 -284.0873961319 1717.9493497729
98.7097421505 -285.1563567761 1715.8207420768
101.0108058576 -295.4248602837 1697.4085490277
100.6647784788 -292.6488063808 1705.5588028193
99.8229554574 -287.9884057437 1716.2143341741
97.4407263796 -276.7470871366 1730.9384874559
100.8429630504 -289.7253169844 1714.5115947227
100.8641163446 -293.9082607909 1703.1670439069
98.0117857927 -284.0387753402 1713.6705631477
97.9210257380 -282.9567657612 1716.2048032032
97.7810694944 -279.3318407351 1726.6956671980
98.5929166079 -295.5898891440 1691.3706981347
97.8017239655 -282.0223624029 1722.5771575230
98.8726972814 -295.8991685697 1700.8011980546
98.4804534333 -291.4811566519 1708.5531828209
97.0536243967 -288.3818591968 1711.7187834061
96.1325521168 -278.6013264449 1726.9168696248
97.0523405660 -296.2160552425 1702.1198374956
95.6928586524 -283.9086398071 1718.0442446208
94.9519038572 -287.1734375363 1712.9952434856
95.2474783168 -295.1703826531 1703.9610071628
94.9831952373 -292.5749839410 1707.0249867232
95.0466872132 -291.9189379790 1708.8358867306
94.8611173173 -290.3265129868 1710.5295456101
94.6898220287 -288.8565822248 1712.0929230373
94.5890884054 -286.6821007979 1715.6199839769
94.3112068617 -285.0617260354 1716.6350026781
92.8883779718 -294.2928447018 1700.1831189660
91.6406674398 -294.3789554137 1691.0590918392
91.6167806681 -277.0942537364 1721.3950107444
91.3459335183 -285.6405358369 1711.1908677463
91.2285445492 -284.7975318261 1712.9918815766
90.6335175400 -278.1830359331 1719.1356364281
90.4315989749 -294.2157736551 1699.6301580081
87.9869214430 -299.2284382699 1693.2921702891
87.6368317731 -287.3619652092 1708.4685639525
85.8806833328 -289.2085456034 1702.9801578878
96.5270907042 -272.2976514385 1733.9921390242
96.0032030798 -272.3543355936 1732.1594146648
89.4897438650 -280.2995109045 1712.2367939005
90.0391376450 -279.0117509712 1713.6729599892
90.4796484319 -276.9788638170 1714.4288692419
94.5049944564 -269.2200688866 1736.8468361593
90.1588036233 -273.9444019599 1721.2566581349
89.0774407572 -275.1547935251 1717.3926622092
89.5146756817 -273.3361045617 1718.3863155850
88.9330603602 -272.3414746742 1715.6039995553
82.5913091511 -290.1703721338 1716.1359372359
83.0776986328 -288.1578881642 1720.7529946848
82.8163083766 -288.8875231272 1718.3843650218
83.4935624978 -286.2974178120 1724.7453264764
83.3928743627 -277.5937361735 1726.7084117138
83.2306863893 -274.0758349719 1726.5094836809
83.1673924617 -270.9875080449 1726.9808712925
82.8462761365 -270.2722880143 1724.5867938207
84.2839414586 -260.9012889164 1739.3291945801
83.6896902987 -261.6391609836 1734.2390179830
85.9240871411 -258.0774110419 1748.0137349515
85.5980144874 -254.8341483992 1749.0196592921
87.0298934883 -267.4931311584 1730.2817347625
86.9417585312 -266.4798138729 1731.7594377343
87.0181268384 -267.5974790432 1727.5126980529
86.0609673499 -256.2766562839 1747.4728886846
88.6778520945 -287.6017021456 1726.2199727883
88.8217316943 -289.9160315389 1720.3127268329
88.7063475770 -288.2274078221 1723.8617268133
86.4713897361 -263.1804516186 1738.2047394829
86.4751537615 -263.5550073884 1735.8204974564
87.3558651312 -289.3830607860 1724.4294276921
87.2969280832 -287.3798927659 1728.5406381922
87.2271868465 -288.7538036409 1722.1875063539
87.2573088849 -290.3367022741 1718.4112287671
87.0683505756 -284.9817152170 1728.3943063748
86.8218341425 -281.9060546774 1729.7023622649
86.5887719035 -279.3385063809 1729.9196273743
86.4356146638 -277.5621213491 1730.3293983760
86.3359768466 -276.0257267945 1731.7367189620
85.3897149373 -263.2224370211 1739.7455518219
85.2639529494 -261.3673955282 1741.2696471651
85.1797886768 -259.0794547194 1745.4249130372
85.3027062635 -265.2801458514 1730.7899134683
87.7782476349 -280.2976801002 1749.5323394587
87.7794449213 -281.6451248953 1746.3525615523
87.7839644925 -283.3047423035 1742.5217204263
87.7373080089 -282.0081080171 1744.3020537751
87.5469262978 -285.7307451507 1730.0707952138
87.3880309985 -283.7673400765 1730.2852233624
87.3564195094 -282.6494382147 1732.0623588774
87.1414048023 -280.3526477466 1731.4938344258
89.2330985604 -282.7375283333 1747.8378227707
89.2282653932 -281.5571155383 1749.7641261986
89.1563995646 -277.3655533738 1755.2345981899
89.0490219412 -280.0879633008 1747.8242532254
89.0340022092 -277.5860482130 1751.7875260307
88.9743642229 -274.5783257411 1755.5109023863
87.5117990788 -268.7720148331 1728.9610100444
87.2636006212 -252.3704840613 1751.1934604088
88.9608715594 -283.7531765253 1743.9014646081
88.8250320655 -283.2644407671 1746.1000381323
88.8676132935 -279.9537575611 1751.8050740730
88.8731533905 -278.8601777093 1753.5035180563
88.6928307608 -276.0330923228 1753.6468232470
87.1612110956 -266.7465838024 1733.6207763167
86.9012661068 -269.4472849762 1724.0524536094
87.4350228092 -259.5025221653 1747.5049829097
87.2676148679 -261.7726374751 1741.9143791599
88.6934857515 -278.7332964869 1750.3299271108
87.2765267472 -265.2414964762 1738.9467921120
87.0256914944 -265.1415550641 1734.9349024487
86.5203956794 -270.0422598865 1722.4012738708
87.2958332043 -257.4615472072 1746.0508222112
87.2017764389 -253.0294379694 1748.3810798959
87.4494502765 -261.3302663147 1745.2363376466
87.5364205248 -256.9944867144 1749.2908440193
87.4950489646 -254.5669230392 1750.2738979582
86.5436586632 -288.7400186260 1720.1595296925
87.3576523714 -263.2689039681 1742.8939968924
87.4529273665 -255.1141089250 1748.0031250383
87.0799972943 -246.5015984731 1747.1850081819
86.4625746771 -288.4330372137 1727.2250693944
86.1929462146 -287.7272377143 1724.1373111688
87.1117278497 -259.3609960931 1744.5820945573
85.4202116235 -269.1484231415 1721.3525833227
85.2853746508 -269.5201589794 1719.6212677805
87.1714669470 -249.7371563813 1747.7558762140
85.4258486273 -267.6869331685 1724.1706844933
87.3239424310 -250.3479723402 1750.3748136205
87.1689963061 -248.0777108631 1749.0216273366
87.1366890576 -245.8766791368 1749.1078811156
86.9123639657 -242.2443475630 1747.2224699451
86.7466257137 -240.2766718965 1745.6767926543
85.5927016301 -267.5082429350 1728.8646734001
85.3754721199 -267.1308155850 1726.3964233018
86.2037248855 -264.7949969031 1737.4809648588
85.2255701531 -269.4620786254 1725.0529775032
85.9103298793 -261.6686947821 1743.5146717261
84.9772005046 -263.9509664533 1732.9623210811
84.5284771382 -265.1641719406 1727.8724653083
84.2499397631 -266.2306968459 1724.6711969268
83.9998275645 -266.4634109784 1721.8933646476
86.1358858767 -244.3758701649 1748.2993622451
85.6276918735 -259.7036084674 1742.8923266698
86.1855498070 -252.7761740056 1749.7870361176
86.0993954389 -249.6917610732 1749.2686777638
85.8891019810 -239.8746263857 1748.3044358000
85.7306096594 -238.2571823698 1746.8172306452
84.5487366535 -262.1195432873 1736.7141769369
82.9747876315 -267.4176149888 1719.4143220322
85.5771759137 -246.9988264773 1750.0516978053
85.4509423378 -241.6287226864 1749.6749962030
85.2939387775 -253.8041963882 1751.2769273699
85.2597837727 -251.3603759207 1751.5166252655
85.1537210945 -248.9954508413 1751.0467355861
82.7790178045 -264.7480763449 1724.5572107223
85.0611289145 -243.9492804925 1751.3295543785
83.7443761170 -260.9305045276 1742.8300729439
84.1662103983 -256.9122408334 1747.7552059587
83.3152085317 -262.5954518419 1738.5691969495
82.7211086573 -264.2519191077 1732.8714680831
82.1555645494 -262.0918775424 1728.6040258411
81.4038973711 -263.8068360555 1721.5129983684
83.3807000120 -260.1600561350 1744.3704534670
83.1156632028 -258.9360650321 1742.6103481780
82.5252914384 -262.7107524492 1736.3809203825
82.9053808333 -259.5793170653 1740.6405455084
83.9498043691 -249.8732772372 1752.7364326105
82.0052512579 -261.1962865140 1732.6122735464
81.7480908988 -261.5503272842 1730.3569801428
81.3501599340 -261.7923877714 1726.9757244389
80.9135007031 -261.8119618566 1723.3527700830
83.2690434323 -258.6728163166 1746.7765894028
83.5491002637 -255.6646742259 1750.2550664598
83.7204676860 -253.9931909236 1752.3151423603
82.6638801162 -261.4645601715 1740.7594594758
83.0106961864 -257.4319542576 1745.1914093406
83.7654392547 -251.8124448853 1753.5601196181
83.2627116946 -255.2918485992 1748.0924149915
82.3516226512 -260.6250916391 1738.5765143937
81.9128765605 -262.9688632363 1734.0847911864
82.1003052572 -260.5185420632 1736.5895018218
81.8481188924 -260.9458642225 1734.3796181330
83.5465080386 -248.1685002011 1753.2649340367
81.2904412856 -263.6477496992 1728.7823993318
83.2101196195 -245.7946452925 1751.5074375747
80.7553422353 -261.5667592910 1725.3013486423
81.4025259651 -253.9529555437 1752.4201242593
80.6218274574 -258.0480593339 1744.4712440101
81.0972497993 -254.0037391217 1750.2390117854
81.2119915365 -251.6019690840 1752.4835330172
80.2176975397 -257.9292788566 1741.6950730264
79.8902408128 -259.3005754790 1738.5680928825
79.4560646144 -258.9387817353 1735.7255480436
79.1325720566 -259.9521641702 1732.8405110626
78.7379436208 -259.4302605800 1730.3723276417
78.2578644656 -260.2571103199 1726.4956362960
78.4113360844 -258.6785551476 1728.5207782570
77.6797807490 -258.7913939498 1723.2993171997
77.2780418563 -258.0019940228 1720.9409881418
80.0195968321 -255.5531531467 1749.2583910938
80.3172302573 -250.5065611188 1754.7363942572
79.9694235364 -249.0506001608 1753.3634695237
78.5099376265 -257.3774299360 1737.7300061860
78.1149640531 -256.8931690499 1735.3713771489
77.5863612586 -258.1557078274 1730.9081799856
76.9631424645 -258.8027904712 1726.2215218099
76.6145688413 -256.9877920585 1725.0889016586
76.3069656861 -257.3668971739 1722.7348580644
75.9730243729 -256.3355071640 1721.1660152549
80.1143418992 -252.6188797830 1753.4967416950
79.5566803629 -253.5584381195 1749.1006757062
79.3087100333 -254.8779172305 1746.5122529469
77.7691724566 -258.5531132860 1733.6161027266
77.4397976567 -256.4673741694 1732.8753587574
76.8007528366 -256.4525240228 1728.6048120113
75.6695878357 -254.8939275380 1722.1224002339
79.2050253784 -253.4321894777 1752.2616052841
78.9671008728 -251.6244275239 1752.0920817907
77.8289549034 -256.1309711260 1741.3979695291
77.4314464731 -256.0425753941 1738.9119213457
75.6720193845 -256.8913542553 1726.9766570520
75.0222996685 -256.1478963357 1723.3632895719
74.4402113337 -254.3551802308 1720.9725329680
78.5705283635 -252.3340666044 1754.3749721187
78.1279949193 -253.9229601424 1750.3194701906
77.7463207518 -254.0119907633 1747.8582719247
77.4587226775 -256.2508418338 1744.2468278645
77.4202259675 -254.2041656881 1745.6615448570
77.0577360943 -254.7637124364 1742.9398024383
76.2598380492 -255.5119056887 1737.3399155858
75.8134857264 -255.5896349616 1734.4829922841
75.0228410748 -256.0432250710 1729.1668342392
74.6683351026 -254.7510829333 1727.9930261733
74.2292361732 -254.5342090633 1725.4198316792
75.8431342131 -253.4847246359 1743.5101967407
75.1548366219 -253.5891008196 1739.1147368975
74.3579648709 -253.9395991863 1733.8196002111
73.6625442241 -253.0957067477 1730.2315444926
72.7976041168 -252.4413530631 1725.4137533401
72.2286569126 -250.6245445369 1723.4901898090
76.0075344532 -252.8337509594 1746.7025984949
73.8812836251 -254.2892129450 1732.1619179194
72.9079881011 -252.5017601911 1727.7338348785
76.1419979488 -251.3171085336 1752.7939357914
75.9053314692 -252.4273596496 1750.2508748151
75.7810895280 -253.4931824336 1748.4549576753
75.4767352423 -254.3447863340 1745.7344088873
74.8763672262 -255.0725668517 1741.2764241053
74.2525858499 -255.5331222550 1736.9266769446
73.8988525697 -255.3072477984 1734.9248040739
73.9727909431 -253.7529419544 1736.8715359470
88.5364019374 -294.5701312329 1696.6029771141
90.3789364130 -287.1918658815 1720.8045012905
92.1163747399 -289.8179401744 1727.2668643161
91.7115780157 -288.2364344423 1728.5874300013
91.6133429759 -287.0887781774 1730.5751572533
94.0935710451 -297.4219598486 1718.4681727305
91.4296957169 -295.5420744830 1707.5533440262
92.1274418396 -294.6411328212 1714.3585842623
91.5640773479 -294.8337555118 1710.3787064104
92.2251993450 -293.1955446470 1719.0488394052
91.0885581942 -290.5883752965 1719.5040292261
90.7680491189 -289.2824363874 1721.2489709532
94.3349836903 -296.2644906367 1720.3514689779
94.2563713314 -295.5638422838 1722.3113226442
92.8410747186 -295.5818746339 1712.3200041980
92.2553646816 -293.3108363515 1716.3516620010
91.8077270570 -293.5903263969 1712.2102612752
91.7712607586 -291.0379307262 1721.1026633771
89.3528541628 -291.7365999433 1701.6361698410
91.1045511922 -288.6327494501 1725.0469908240
90.3190039309 -287.6020251018 1723.2315465230
96.6217457142 -297.9004865651 1697.7129577363
94.3689409555 -293.1258782671 1701.1930046122
93.1978382766 -290.6750968413 1702.8502919541
91.6100106087 -286.8591209917 1707.4916061169
92.3679215091 -298.5489304346 1699.4393693684
92.6348252202 -297.8847846083 1705.7551256032
92.0771521677 -297.7293043884 1702.4115503711
89.8119248977 -293.2531385843 1713.3770959887
89.9125681902 -292.7618095995 1717.2966755689
93.1570406688 -296.2955852702 1702.7241587392
92.3446431275 -295.1239168239 1703.8705079364
105.8917509217 -291.0261653874 1691.9052660077
106.4355798993 -290.0207240799 1693.3236762760
107.3330699111 -288.2504778250 1695.2977469876
105.6578141298 -286.7909022759 1689.5599865694
99.9770535454 -277.1423325246 1723.0394802669
109.6924065844 -287.6631605763 1690.6437794634
106.5922232103 -282.2332891593 1711.8872742292
105.2330634089 -291.5387114412 1689.5502299316
108.7789354226 -285.2710939245 1690.5291653052
110.4360976916 -283.2048737571 1705.9955786362
104.7021146434 -274.2451268203 1722.1051013209
112.5051312995 -286.4506206143 1696.0764501818
112.2746859899 -285.7324314165 1699.1801170629
107.6029357711 -282.7270788109 1687.7169791045
104.5680604495 -281.2683061832 1686.8548450378
113.3176532673 -283.8488443378 1697.3547975163
113.4284900501 -283.5933469231 1700.4722634337
112.9364158367 -283.9315654361 1694.2410435632
112.0291324615 -283.5275536681 1692.5740436493
108.5751185854 -279.3542866826 1711.4153578363
104.6418417290 -279.4599761172 1686.4374788659
112.3466517229 -282.7881816592 1701.8312779024
102.9029537453 -271.8282226863 1726.7500026643
112.8049355862 -275.0164957211 1710.5293129411
101.5731691652 -270.0187707635 1729.4644835029
93.2914930387 -264.6780524837 1738.1861694225
109.4688370115 -265.5453571864 1715.8592723796
108.7946482935 -265.5042182089 1713.8279000145
101.3545820077 -262.0110795647 1734.4599589388
99.4795704307 -261.4517551504 1735.1125915816
96.6264497723 -260.4423142178 1738.3485867416
115.6598336776 -264.3557614150 1703.4747643807
107.2806746209 -261.4687666288 1712.7730316991
107.4666493190 -261.3036075115 1716.1372018406
108.3486625928 -260.8882663340 1726.3611345921
104.4263427875 -259.4470188096 1732.1129202745
114.1462437610 -264.5661775705 1700.5576918432
113.5943872388 -264.6076793251 1698.1934904339
111.4760763586 -264.2670530149 1695.8070857787
111.3433216551 -264.1013850696 1697.5884100292
110.4057815174 -264.1600690259 1693.7300833284
107.0580165705 -260.7265279629 1728.6939695304
101.5808652720 -258.9816318671 1734.0853642038
108.7075501951 -263.0270721409 1720.7061978032
103.9168609369 -261.2161000616 1731.7570622007
102.2719959793 -260.8036844699 1732.6293480280
101.3051248477 -260.3900015075 1735.5321557819
98.6505266449 -259.6409748937 1738.1044016085
110.7582822004 -263.5817588151 1716.3952351891
94.5259629374 -258.8579881687 1739.0854049152
107.9701789061 -262.4511902696 1725.0046441030
100.0421226512 -260.8795664512 1737.3096958079
96.6102837197 -260.2903564528 1740.4684634405
93.2031848969 -259.7925919288 1741.5296276431
105.4494177475 -261.6142063230 1715.2105782380
101.4280031107 -261.2096840838 1712.4406952297
103.8572572272 -260.4753011733 1728.9924623783
108.9816085031 -261.0708387936 1717.2702931967
102.6587002032 -259.2473501381 1731.1439613753
105.9316196381 -259.4786883419 1726.5293639468
105.2447180051 -259.2672738150 1729.5660891842
97.2693541919 -258.9233911161 1712.7023271223
92.5071866597 -258.2970373623 1713.0291531403
104.1700658313 -259.1911331768 1720.0762747238
102.0868896438 -259.3191089277 1710.9981293317
102.0600946670 -258.5509253058 1728.7041765068
100.0102312727 -259.0169288140 1711.8979282686
98.4563435488 -257.8653175566 1733.9980724631
95.4915593715 -258.4274738785 1712.2799207111
105.6281584517 -258.9955311465 1712.1095784223
101.2150520546 -257.5124040182 1730.6899493782
105.6326127341 -258.5751022729 1715.9832359904
103.1362634039 -257.7987920619 1713.6379390509
101.3011718643 -257.6389782827 1712.9301937773
95.5768809047 -255.7069932283 1736.1116450914
103.4776446234 -255.5687354484 1722.9763856614
101.6563743261 -255.4280180561 1722.4289159968
100.4659423157 -255.5051296046 1718.5982123236
100.8113106692 -255.1777211474 1725.9746533565
98.9286696163 -254.7134245319 1731.9572610124
96.5411505161 -254.3297476080 1735.3310883860
78.6510607280 -254.8350932109 1692.5452823160
78.1346670240 -254.5958640779 1690.4414407932
77.3330451037 -254.1572591864 1685.6309821881
74.2355642773 -252.8489510979 1675.9210585320
75.4142388630 -253.5935821923 1685.2849639296
74.9317049317 -253.3497113493 1682.8521082942
72.7374253437 -252.4660830222 1676.9656009052
80.0062785996 -255.5597909966 1693.4061407815
79.6846568111 -255.5668415320 1695.6423322621
75.0412539914 -253.4994583743 1678.6525622103
76.4184666583 -254.3310555539 1680.6903632937
76.4229213801 -254.6670173265 1688.2165199480
73.2282237496 -253.0687027633 1672.6977462900
71.8148755155 -252.5617034701 1670.3317852270
81.8847904918 -257.1195291290 1695.6387593100
78.2487821967 -255.7166334555 1686.7447067856
75.5662857898 -254.8304313765 1683.6897602533
81.0001152688 -257.0728540674 1693.2197470373
78.6572405683 -256.2262693564 1688.7386340294
78.7591444763 -256.3796191797 1691.7186464443
77.0664197404 -255.5353499344 1682.9214056129
74.1918590001 -254.6613738427 1681.3605583961
73.7855477015 -254.4718803950 1679.5634525598
78.5382009410 -256.8663537283 1684.8085473077
74.9789814310 -255.5139591575 1675.7497708405
74.4510952763 -255.2427258188 1672.5950284577
73.8406848591 -254.9899524154 1670.5073020585
73.2249025265 -254.9696289408 1674.4171009506
71.6367995053 -254.3032828028 1668.7622824169
78.6076454418 -257.4893819441 1687.3144312056
75.6227332084 -256.4176333683 1680.8417157839
75.0102484788 -256.1523384573 1678.2684655036
80.1897918917 -258.7455068266 1686.1069518543
79.3487423829 -258.4343859566 1684.1417015174
78.1960497407 -258.0163654790 1681.6619022713
76.4979328499 -257.5711869081 1682.3575781240
72.8966466945 -256.0331739127 1668.6969468374
71.7146854823 -255.6199368045 1666.5465998431
76.8355648378 -258.1173907374 1679.9762162463
75.7647024048 -257.6322179093 1674.9678012571
74.1092208636 -257.0350974830 1671.2775323071
108.9155870454 -268.4772861694 1708.5324135088
76.1168048756 -258.3106305183 1677.5361787285
74.6018932682 -257.7361126120 1673.2538622915
74.8368266268 -258.5671528353 1679.1436642886
72.4245998056 -257.6582217185 1672.1784141142
79.0779720575 -260.5238958961 1683.3629333562
78.2381936365 -260.3699487090 1685.5405440346
81.3808020777 -261.3112762564 1691.7955708116
80.6130486089 -261.0155885205 1689.4145236257
76.8056125826 -259.4826115270 1675.7164604079
72.6828223702 -258.1079791898 1668.9799808734
70.5503240360 -257.4816585636 1667.8991062698
67.7432860984 -256.6763869137 1667.0201111355
80.9081011879 -261.5938042984 1687.0699298307
77.4952478379 -260.3566007956 1678.8246642507
75.7870128846 -259.9796116511 1678.5099616719
74.9809097836 -259.6252381536 1674.9180392460
111.5241593672 -270.8388343411 1702.8386434297
76.3761615879 -260.2183914117 1680.3067147337
73.7531687690 -259.1297853553 1670.3002043066
71.3138335871 -258.4641112453 1670.7444635725
68.5961706237 -257.6589032524 1669.4514065858
77.4359464633 -260.6170855645 1677.0836171531
75.5807530216 -259.9453712968 1672.8717645981
111.5780628748 -272.6233328808 1704.1095054868
89.6330091785 -266.2641328111 1700.2723810876
81.2658533247 -263.5763917308 1690.7576149471
79.0870566754 -262.8032021740 1686.0367711619
78.0407126443 -262.4059903579 1682.9772019777
76.3751711906 -261.6612360734 1674.6649600920
74.8070718325 -261.0897284401 1670.8072038432
84.4777227529 -265.0423761829 1693.1366755583
78.9715936002 -263.0927648394 1680.9780841878
80.9124245958 -264.0834503316 1686.2272266774
76.5524204057 -262.4195916745 1672.5581356981
72.2074401643 -260.9939180543 1666.6142635720
69.9750260697 -260.3467405779 1666.3786119633
85.2588478884 -266.0301971442 1694.4801726817
81.8160871662 -264.8675954170 1688.3710588069
79.6078912768 -264.0814838168 1683.0886132245
77.3637880348 -263.2226494839 1675.6972837753
77.0006575887 -263.2223877887 1679.1827870514
87.4834348987 -267.3607017002 1697.9718406197
86.4237383117 -267.0093996869 1696.2978908802
83.0776182164 -265.8917578324 1690.7376577930
75.8044763301 -263.4133627792 1677.0406815418
72.2708906854 -262.1643544293 1668.9121082705
77.9597724175 -264.3138054335 1677.1807132991
74.5743103741 -263.1025723577 1669.0261816843
80.9400295257 -265.7484225526 1684.1706105790
81.7093042513 -266.1147871727 1686.4150545074
78.5682185919 -265.0703137338 1681.6325630153
77.1803140222 -264.6334619901 1680.3462523314
75.0590051234 -263.7548013384 1671.3048062586
75.3159552643 -263.9314626237 1674.7554004563
70.4239594977 -262.2945629083 1666.9644880237
78.3094384901 -265.1873072431 1678.7625499128
108.9478527355 -275.5475920513 1709.4748521671
107.0011548517 -275.0033367730 1710.0141908185
76.7633305285 -265.0362772966 1673.2780770061
72.3871494188 -263.6666874320 1670.1347159738
110.3575172115 -277.7307826909 1708.3190244024
80.2368193091 -268.9574567368 1684.1413202775
79.1901179368 -268.4908014494 1679.5424524041
77.6744758703 -267.8896791800 1674.9561941535
75.7187034250 -267.2003039085 1671.4363607410
113.4461733825 -279.6747445542 1699.6077015661
104.7297727819 -277.1109524003 1698.2588915856
84.8125709297 -271.5449808691 1688.4328210728
89.5023593181 -273.5340966581 1694.1530557352
87.2479488752 -272.8463103255 1693.3882799810
82.8606525497 -271.2279481450 1684.1696717043
80.9257980840 -270.6667998683 1684.3183672231
112.8368705398 -280.7314648714 1701.7580320221
89.6651814581 -273.5438661119 1695.9269543198
87.0238892735 -272.5875508595 1691.1617106762
84.7140861552 -271.8679674216 1690.4874308167
83.1957546726 -271.3001596306 1687.2071996355
81.1926066006 -270.5239387476 1682.0683097056
112.4844205092 -280.1184085266 1703.5454835777
109.9067121064 -280.0991976935 1699.4055866913
108.6658238457 -279.6688195642 1695.1444926248
109.4087142508 -279.7909177722 1708.7504664777
105.9803752561 -284.0538910661 1688.2396418469
105.4692923333 -283.8764415909 1686.3761549877
106.7630882350 -284.2597070274 1699.4033765264
101.3010661468 -282.3913384801 1675.9519014450
101.5218705487 -282.4469563699 1679.4090657407
99.9424431629 -281.9036256435 1673.0137322237
100.1713949586 -281.9539345300 1677.5260731440
99.4398898605 -281.6971476966 1675.2125035043
98.3936640603 -281.3344562876 1671.3270814275
97.1654295352 -280.8849993560 1669.7483544004
102.0806308364 -282.4173103139 1709.6291353988
94.8917336631 -280.0254120787 1670.2983683268
106.9670876753 -290.2220015128 1687.2494184653
105.8698180674 -289.5073201634 1685.4675187091
105.2194550989 -290.0429997440 1688.0186196055
105.1205718686 -292.9271213855 1694.2739004673
100.6983645881 -293.1237610347 1682.0413371352
103.4276105604 -295.3417529744 1688.0469581865
101.8077864718 -294.8217033803 1681.7957745320
98.2565140548 -292.5101682154 1678.7403719915
97.6627854527 -292.3701610126 1675.9889420365
96.0197055555 -291.1637565892 1675.8200683779
102.3631025711 -295.8629398744 1683.2471751607
101.0711990603 -294.7831979705 1684.0792054111
101.5463552957 -294.4527541128 1689.9269542653
99.4839588190 -294.0777153759 1679.8482279597
100.1056953993 -292.0886858652 1700.6660559005
100.5261128837 -295.7096364319 1686.8995036773
101.1983886996 -295.6621409371 1695.0441940867
97.4195810986 -294.7621129856 1679.4395581819
96.5176548628 -295.6221116813 1681.3980199336
97.6983735197 -296.1314900791 1686.6512929059
98.1730031971 -297.3440683739 1682.8296596411
95.1541701117 -294.3153393100 1679.0124455109
93.9779945679 -295.3791868607 1680.2366491940
92.8790219470 -293.9430417348 1679.7298179066
91.8782441833 -293.0989889186 1677.8402995192
90.8266397364 -291.4981537482 1678.0529993467
96.5555509398 -289.7093234356 1709.2545603589
89.4033397865 -289.4454670707 1677.9899514308
95.9848709016 -298.7051541293 1682.0816088410
92.9320149963 -295.4070818823 1678.4350121110
97.7112118624 -297.7944320449 1693.4561012640
95.4185863607 -297.6055034194 1683.6684649039
95.4997618345 -289.9230450675 1707.2083829487
94.7389957098 -299.0473830684 1680.5959443415
91.8215597409 -296.4555332805 1675.2508166256
90.6119174154 -295.2595170350 1673.3927065878
89.1733800267 -293.6531311403 1671.7260610697
94.7438451380 -290.9332873492 1704.5589657254
93.6335088646 -288.4149219028 1707.0448287135
94.2521067997 -300.9356632766 1680.2453506388
96.3472248500 -298.7798377444 1695.0491196335
91.8744101358 -298.8560291615 1674.9846991614
95.1765023849 -298.0095199176 1691.8122190294
90.3152829878 -297.0737575699 1672.6023495229
89.4902027636 -296.5435087585 1670.2888760971
88.3501070000 -294.5955508604 1670.1904672578
87.7842584565 -294.2453538108 1668.5695642158
87.0594958852 -292.7571425846 1669.1441038409
86.5559030366 -292.5500951479 1667.4348024145
90.6700407553 -302.9961457582 1681.8359212577
89.5629974272 -302.3366873211 1678.5368217216
89.0000284406 -302.0079455689 1676.8482993235
92.2015553701 -301.5957940031 1690.1821934530
89.6418551637 -301.2432063006 1680.6369637855
87.3172226274 -300.7885314840 1672.1882224229
91.2822760803 -299.5214031326 1689.9395977592
85.2342160746 -298.0606069748 1668.4126914129
92.3847238017 -297.2356944512 1698.0371448885
83.1889988117 -295.3287326000 1664.7930509229
82.4525648250 -293.4677812299 1664.9244175357
115.5099862278 -259.0842252111 1715.5443046669
114.4172726598 -260.2122121252 1725.6432895725
114.3614788455 -259.0939762937 1718.5029795649
114.4157687991 -257.8595978135 1710.3289502486
114.2271519575 -258.2989896619 1713.6653486420
113.4312474989 -259.5531717602 1723.8378008470
113.5441685170 -258.4144345898 1716.1387040362
112.8177272710 -259.7196719013 1726.4684778384
111.9959466185 -258.7215584051 1722.0412152630
118.1376408097 -261.1873387832 1707.7212166195
116.7460628379 -260.8945999907 1709.4246364056
116.3256380453 -261.3730497142 1713.6409236853
115.7184138567 -260.7937522347 1711.4356675579
115.4178818213 -259.8977857824 1706.3659524012
114.6217533451 -261.0302510371 1715.8287501547
113.7068231968 -260.3784039025 1713.9490972809
112.9611076834 -258.5052166291 1703.6548617352
110.2906705727 -257.3687396655 1703.1710172812
116.6133416235 -261.2412388742 1705.1926840331
114.7939515045 -260.2896713655 1703.7330261285
114.2356089801 -261.4078503805 1712.4749370615
111.8825970336 -261.0729125831 1716.4243185155
116.9014768270 -262.5778287416 1706.7736553969
116.5473560274 -263.1591137679 1711.4640330804
115.4809723477 -262.4578877916 1709.7509961888
114.7007423793 -262.7564063068 1713.7402821912
111.5735797094 -261.5167799152 1713.9926408812
110.0078254445 -262.2549560595 1721.7502675495
110.9316909762 -262.6348614953 1719.3897406549
106.6549411727 -261.9770566341 1726.5024046339
104.6826784101 -261.9323831603 1727.5519368444
116.6190386300 -263.9725743791 1708.5863270723
100.6164644497 -257.2003522071 1708.6209633631
109.5495953286 -262.1226679681 1715.1600264107
111.4356373494 -263.3484466197 1714.7289486995
105.9833718366 -263.2594127912 1728.0006725318
111.1636547553 -265.8743306988 1717.3243173802
113.7884720592 -267.0058392021 1697.6913097632
112.2697010770 -265.6707772986 1694.5535257079
111.5985500680 -264.8950206578 1692.1500390427
113.7307995901 -268.8901347501 1697.9914013797
112.1403053627 -267.3840795695 1694.1576179655
111.9315757331 -268.0470078802 1698.3555306740
111.8223178511 -267.5886197526 1696.1533036637
111.5184719894 -266.7887347541 1692.6230879032
110.2778562408 -266.4086625255 1693.9737322489
110.1821068677 -265.7979968569 1690.9023504621
98.1558194043 -267.0102235802 1730.7435751834
96.2884580974 -266.0901801875 1730.8757457492
94.6230530477 -265.4285731888 1731.8618206417
101.6257692162 -269.8526978619 1727.0153216493
100.0369334573 -269.2746432834 1728.3210173449
98.4324731836 -268.9094080595 1730.8110471957
96.7110345639 -268.1175762810 1731.3382196553
94.0380967975 -267.1563570021 1733.5951735696
93.3619199144 -265.0297323394 1733.4146338788
99.3027941646 -267.7395055421 1729.4949263474
96.1158906623 -266.6704026792 1733.8696567500
110.0201348593 -271.3867292753 1712.8623115216
108.2898488174 -269.0197164520 1701.5542716456
110.3816704379 -273.0739682891 1710.7029895655
108.4293077256 -272.8049384333 1703.1589490524
110.8147324633 -278.0837333215 1711.6047718794
99.6488153270 -273.0669426438 1725.5430181679
99.5282039787 -273.4120593366 1727.8420988969
109.1024853329 -277.0323275794 1710.6690275711
98.0760839474 -272.3920951989 1727.5141974571
107.4009877979 -273.4229695428 1700.6989101863
102.4123139953 -269.5062079643 1699.8094675620
97.4007471592 -271.4613657917 1729.7577800071
105.1909797975 -274.8344261148 1719.8554785017
100.0162620224 -276.2022248643 1724.9464906673
95.3271239366 -273.8955705049 1733.2285958019
104.3252361969 -280.2834832964 1719.6063623463
102.3871685694 -279.3040523884 1723.1557916498
111.6553183929 -282.9472309438 1695.0229142941
110.5334360182 -282.0833147198 1693.7075639300
107.0947837253 -281.6559239765 1708.4439140836
104.9996018598 -281.4022790537 1717.4622197417
99.8020935619 -278.4634570244 1726.3836806535
110.7858047976 -283.9778912635 1696.5429929019
105.7324541750 -281.7332769478 1709.8765435617
111.1254087206 -285.2618461809 1701.0265323781
109.6450837824 -284.8740690647 1704.8570946295
111.7521428099 -285.2627172597 1692.3744889644
111.3904400061 -285.6778875463 1697.4012681320
110.9968310238 -284.8879175143 1694.4765872887
110.4168299614 -283.9535052218 1691.7194392952
106.5553989287 -279.5326087937 1685.5326773449
105.6198230502 -278.4542230731 1683.9846327730
102.9037889294 -280.6651231331 1715.6016482217
107.6514415517 -284.6183856010 1708.1767965113
103.0408733826 -276.7578224825 1682.9774177662
109.1309673417 -286.3292857397 1700.4966078989
106.3904380423 -281.7445673255 1686.1341024649
103.6576299039 -278.9966871920 1684.8416529200
104.7567059421 -281.0172983600 1684.6609098814
102.0864654630 -278.3401127819 1683.7404342588
109.5939519398 -289.5110712843 1694.6655550918
108.7406988737 -289.4285516613 1700.7362683486
108.7468697565 -288.4383302911 1692.7422402688
106.0603346674 -284.8081265300 1684.8130859419
104.7503840580 -283.5090152211 1684.7258155666
103.0194428532 -281.7258581224 1684.0766051814
107.5959119175 -287.8818557053 1689.9697209046
102.2479898374 -285.8393577547 1716.3732177335
101.1703979902 -284.6597512335 1715.4784139380
105.9054176106 -285.9050893784 1686.3104059601
101.6223043250 -285.0500856560 1718.5155114942
106.2994032429 -288.5561555882 1705.5710018331
99.6709645197 -281.7241195786 1721.4956126390
102.1186204937 -281.5218597070 1681.7526405102
107.0022046031 -289.2774937822 1697.0169615186
104.7208421595 -286.9473315861 1709.0920166486
107.2703508523 -289.6872111887 1698.7528922487
103.8820113830 -286.2224600675 1711.0184607367
107.9525330441 -290.8415126177 1692.7206843938
105.2178132145 -287.7381348602 1703.4799970016
104.4209074640 -286.8591899170 1707.0020490048
103.5739759823 -284.1331107438 1683.4478137419
106.5237413460 -288.7899196598 1691.7263982793
104.7294553041 -285.7620949257 1683.7055277776
105.7910350229 -289.5503096301 1703.5658797218
102.9780384451 -284.3117338592 1681.6923002952
103.9785204618 -294.5703356711 1696.2043971473
102.1933650748 -291.9496733254 1703.1517212032
102.8693038559 -292.7646603415 1685.6022013919
99.8043499888 -288.4468950400 1712.8166576688
103.0896828026 -296.1139131510 1692.7479313904
102.0338644753 -294.4289240692 1686.0960109283
102.5778921952 -296.9369777862 1690.4323296105
99.3556929174 -291.8948752269 1703.1239332245
102.2318650648 -297.1307836239 1687.3442905675
102.3355177677 -297.2989804489 1684.7029630770
101.4412751503 -295.8467823422 1691.7030193040
94.1752573430 -284.0447876699 1714.5249955417
100.5955336310 -298.0693716148 1688.7501742848
99.9650086726 -297.0494468703 1685.2159841681
98.8745297971 -295.1790511793 1684.3950254208
99.8917126229 -298.3234428614 1690.7684011402
99.4923924124 -297.9673490313 1692.4633145518
92.4316960074 -284.6561297995 1714.7164619073
98.6099293849 -297.9222026130 1689.5441093187
97.9231499171 -296.8199017278 1684.9410526022
91.4726482234 -283.4466797122 1715.6929124111
91.1846094290 -282.8068077903 1718.1123875409
95.9000998158 -294.3587533017 1702.0061621609
97.5119922509 -299.9618894971 1689.7119790576
96.2787475445 -299.3137238224 1693.1001753131
94.2229913763 -295.3567351359 1701.7088304242
93.0597525101 -292.4254813351 1702.7994950110
94.7373699623 -299.5406489998 1694.1917668499
94.5902105533 -301.0180164347 1689.3795301195
93.5646355020 -297.8575878074 1693.4881632741
90.8023937574 -289.2686974092 1705.4745913604
92.1135637618 -298.8806519415 1691.5746220828
91.5064819098 -299.3327825119 1687.8942033253
90.3199526355 -291.8893504634 1703.8976710313
90.1366480692 -287.7015443880 1706.9018003245
89.7491070049 -284.8432787887 1711.8293099878
91.6583864993 -295.7455501214 1699.8105995876
91.1381125898 -291.9525886093 1702.2502757265
91.3602592411 -298.2284052043 1694.1051948415
90.7472221426 -290.0623493782 1707.1910626864
89.9265813796 -282.5239518185 1713.2023390876
90.2398503007 -301.3139464347 1691.3339579068
89.5001965136 -290.7204469364 1704.9830122239
87.9559960263 -288.0384276345 1706.6793279063
88.0197894275 -293.2852614398 1697.9202578682
87.6312108803 -283.6342934465 1706.5949710257
87.9863503676 -300.9471014702 1690.1155448058
87.9957418474 -296.1321466286 1697.5242767027
87.1453023421 -284.6699309433 1704.8180707961
86.9133706825 -298.0946480076 1690.9114641993
86.8003331927 -290.5245438747 1700.6253200325
86.0391496754 -299.7355050731 1689.6893132135
86.1826457183 -294.3580602310 1697.6361105550
86.2082876408 -292.3052605601 1700.8405416435
87.1002100713 -281.5098813172 1706.7680593812
84.6005687114 -294.8161090795 1693.7031388865
85.0909787853 -289.4385824763 1699.4602530467
85.5430650149 -287.3674224546 1702.9524479983
84.3021398667 -264.6981834656 1735.4844782161
82.5306161310 -265.8677359174 1728.0701434505
83.4094028214 -264.6038823467 1729.7754975951
82.5388521838 -265.2474110506 1726.3304865483
81.8977308744 -265.4728247121 1723.0763504013
80.8268128207 -266.1809068532 1718.5973287033
80.3441350987 -265.7140272420 1714.3106712214
81.1522081579 -264.2702087531 1715.0661188159
87.4219624016 -263.6697922067 1740.6818205385
82.1483982271 -265.9386635198 1715.8729424921
82.6663497887 -265.4497924134 1717.4958043246
89.6748493322 -272.2383575626 1729.2363195430
88.3999282045 -272.7177959050 1722.3926461427
86.7002985968 -273.3682740793 1713.3264819535
86.4362435367 -273.0801966008 1709.9490554839
82.3042886625 -268.3274260600 1721.5246041361
88.5781899848 -263.7187198211 1738.7781558439
89.3745851690 -262.9351372111 1740.3504076519
81.7902780190 -266.7937070057 1714.1635934946
86.1733215146 -265.3529818006 1732.9909184121
90.4366347698 -262.0937450603 1744.0359556751
79.4509630622 -267.7760023314 1707.3852068964
85.3602549029 -267.0757752439 1734.1323933602
83.2941384901 -267.5681517239 1728.3895201658
89.4010186298 -264.4167536984 1741.9345241816
82.1713156433 -265.4703512737 1720.4858820946
76.8977487896 -265.9171630158 1704.1900925358
77.8643068333 -265.1369166399 1705.7648030954
79.2327859049 -264.5091315990 1708.9586100127
76.9694845442 -264.8701726557 1702.3070828675
86.6208165578 -267.0262438057 1736.1616247401
84.7076411145 -267.3832878012 1731.0343015141
88.7381801209 -265.7244012493 1740.0674018320
82.2497417862 -267.4626323500 1723.7070646888
88.2106051859 -265.1152626795 1737.2731206937
83.5865018270 -266.8400810875 1726.5617875214
80.9358470122 -267.6432647817 1720.0598518042
91.0623381870 -262.8270740661 1741.4902109180
80.4397118191 -266.4264878198 1716.1758968446
79.4796365008 -265.1716341405 1710.8053949498
78.3213411546 -265.3465455268 1707.6206772914
86.4258703314 -268.5881342263 1733.1433099265
88.7010935986 -267.5330673787 1737.7266323771
84.0655167020 -268.8794966794 1726.7763893892
83.7713275244 -268.4053171119 1724.9581904823
89.8806430328 -265.9826833849 1738.0887915090
91.0766599947 -265.2744607227 1740.1897975574
79.7094770065 -266.9943846656 1710.1632434272
79.5526134978 -266.3632912240 1708.4345468610
81.3328225358 -265.5446503018 1712.0344930429
88.0963672452 -270.4504093041 1732.4810256938
85.0037127813 -271.0707918464 1724.1732909750
84.0333595642 -271.1254685714 1721.2296660358
90.1468165877 -268.4760388064 1734.2261085342
83.7640518832 -269.5565940365 1716.5991595827
83.2952138055 -268.8346293022 1713.3752054074
82.4420564118 -268.6984354091 1710.3434845551
80.2616896044 -269.4791584233 1705.3129992410
91.3389417843 -270.2208579459 1735.0068724181
91.1460673110 -269.7523601300 1733.1337502708
92.6747240186 -269.0012503713 1736.1433716925
84.0838128085 -271.7271825281 1715.2652537468
83.1541326382 -270.4173284118 1708.7509648793
82.0039895422 -270.5612200592 1705.3697426834
86.8303555224 -271.7701715029 1722.6976935037
83.1129813499 -271.6614526263 1710.0769978766
81.4838771460 -269.7212376324 1699.3905958758
89.2633766813 -272.5247827035 1731.3772463164
86.8818583814 -273.2160662530 1725.3513654166
93.7388879627 -269.8829925264 1738.9601416477
81.0411526204 -273.7013985097 1707.2010395894
83.3332350806 -272.5582329524 1711.6691283951
81.3826375699 -272.5884499853 1705.2400903788
81.5326843739 -271.6855060377 1703.2250824588
83.5612802601 -274.1751366519 1712.7514525298
84.8249179306 -273.3521194843 1714.7095074730
83.1261693271 -273.9288998799 1710.4962811559
82.5297561026 -273.8776165114 1708.2595069685
83.5095305685 -272.5322280016 1707.6665382129
86.5426700826 -274.0882610741 1716.2912466493
85.1482837738 -273.9354097142 1710.7449620814
90.9489020323 -274.1091118537 1730.4567218883
92.2737087967 -272.9151744868 1731.3459023168
85.5927632172 -275.3996181048 1715.1895329758
85.4468206838 -274.9357516585 1713.1264973425
93.5551674596 -273.1044753706 1735.4198627898
86.8959267059 -275.5787803834 1717.4903748857
95.3061796760 -273.2967364572 1735.1778159300
86.1167252248 -276.8734219011 1713.4860458360
87.2582802683 -276.3029022810 1715.7266107726
96.9504035348 -272.0600990106 1736.9122246759
99.0831484921 -269.8910079265 1737.1290187604
86.5203600223 -274.3429533980 1705.8996803506
86.6646189235 -273.6251066197 1703.8594753147
91.4774343238 -276.3065914124 1727.3683313342
90.8016540172 -276.5281664899 1725.6637779109
92.3442873130 -275.8570769399 1728.9523990463
89.8089033113 -275.9840985975 1719.9903690490
87.6650114981 -276.0761826820 1712.3563269838
87.8245623524 -274.8183270186 1708.3649042961
88.3429863128 -273.6152808773 1705.9073151784
88.3977172017 -273.0924812640 1704.2053115774
84.4555267980 -278.9567667155 1707.6381707298
84.8024472693 -278.0973758924 1705.7540242129
89.2017858904 -277.2956653430 1717.3535442489
85.7503788639 -278.5389933083 1709.0617592392
86.2766406133 -277.0749914512 1703.1557113644
86.1703914668 -276.3339600988 1699.8969445732
90.8638695776 -278.7504353459 1723.9619259850
92.5992064130 -277.6305630089 1726.3013109768
96.9898380142 -275.1776713783 1733.7283104318
84.3282660407 -280.0963691233 1703.7708155757
84.5365952083 -279.4639532560 1702.0782010022
101.0883928546 -271.2231736042 1734.0637599752
86.2589827448 -280.9198163565 1711.7045920137
83.8601616601 -281.5242081542 1704.7132285792
93.8720913291 -277.6309335691 1728.3832141081
86.5031837950 -279.7301144599 1707.8815168030
83.7275707695 -280.5540096458 1700.2927107555
82.7880796012 -280.8828521565 1697.9249059144
102.0134554030 -270.7064429822 1732.5227749587
88.0874911953 -280.0459493074 1716.0600004890
85.2135929943 -280.9178737185 1708.1635847934
89.4360912908 -279.1076659715 1717.6190676051
84.9086000140 -280.7180872217 1706.1397862036
85.2762479704 -280.0866854496 1710.1190580104
98.3279967778 -273.0247275205 1733.7043174861
89.3964026130 -278.4026784664 1721.3316770598
87.8707360613 -278.4062119243 1715.3536313665
93.7145297176 -275.6823147727 1727.6656567724
100.7807630523 -270.6289917625 1735.6806523072
88.7725906903 -276.2644061959 1724.9286562000
88.6259201297 -275.6836567971 1722.2279037807
97.3572740123 -270.8192467868 1738.5692169316
86.0718485506 -275.3835561569 1711.1372632299
100.3615783296 -267.6293577036 1738.6391872764
91.7589915413 -273.8318003168 1733.0268251169
89.7537146335 -274.5343744759 1727.8185186253
86.7195542848 -275.7555692750 1720.4910350861
95.4194345572 -271.4058562194 1738.5344507651
97.9353429968 -269.3529359908 1740.9715126733
87.5270472635 -273.3025098707 1714.9975223982
87.5569958558 -272.2750661080 1711.5181773200
85.3004345396 -272.9796216110 1723.9396855458
84.7097669873 -273.1520484844 1722.2776596368
89.7082488488 -270.7275237340 1733.3236342598
83.9657525285 -273.1805533098 1719.5941064601
91.4440604282 -269.9311955595 1737.3022370103
88.4361721800 -270.4801492256 1727.8094762213
85.7959998628 -271.5009845635 1721.1626783399
93.1949262353 -268.0334560908 1737.8927442506
95.0970279830 -267.1227637141 1742.1334285250
84.6426622477 -270.4861407658 1713.6910852678
84.3672711056 -269.9741435661 1711.0637412560
88.0356176939 -301.5278500029 1683.7564502871
87.5029057722 -301.2470509471 1681.8996514709
91.4541857874 -302.0925263632 1679.6369126564
92.1715299825 -301.8848971746 1683.3407187362
92.8368039138 -301.2393983554 1687.7147456954
91.2122711498 -290.1420560996 1703.3096368955
90.0947437642 -302.0002153444 1684.2525143059
89.2538373417 -296.6337587118 1695.6742988078
89.6664441352 -299.9073502903 1688.5954287188
93.9338102096 -299.2327341585 1688.2451546081
92.4521707830 -299.1264851269 1682.0790555326
96.6094478135 -297.4778588142 1688.5060817180
94.4583140350 -296.9687958920 1681.0930914635
91.3331705589 -294.9917013453 1677.6711585714
89.7267954179 -288.3913815697 1709.0663363036
86.5006992012 -285.5673091902 1710.1834090672
95.8240425251 -297.1275260909 1694.0265653199
96.7288443798 -299.3243429249 1687.5006435148
95.9409822739 -299.2143171049 1684.4703573562
92.3600602861 -297.3195604573 1680.2472272529
94.8558904030 -298.1625264958 1686.6566586025
93.8077614217 -298.0796358154 1684.4013030421
94.2568509094 -298.2106788385 1682.3837774179
107.3433059346 -290.1446265415 1689.7301388371
103.8271359531 -289.2412908596 1683.2474471191
105.2433902679 -283.8734195054 1712.5750648924
103.8027297235 -283.2915904349 1710.9057655412
107.7981126330 -287.5943792757 1698.8600664784
102.9758594663 -287.6295742738 1684.1443669865
101.4895684018 -286.9886242831 1682.8068183040
98.1338785098 -285.1228335900 1681.7467115841
96.4446828906 -284.0467711997 1681.8536699773
94.9131902137 -283.1391379464 1681.6324962386
99.8493717453 -285.7548501746 1682.8849185400
97.7103849271 -284.3678439665 1683.2718564673
100.9596725538 -279.0366369290 1717.6708935347
105.1664162688 -287.9391889512 1687.7987148011
112.1135333911 -278.0938788590 1690.0764847204
112.9379602624 -277.7044265682 1694.8906630563
111.3170317351 -277.9794962776 1688.4334950880
111.7457655216 -277.5872961033 1692.0999153867
86.3432066194 -258.5886845667 1702.3917803921
85.9204910619 -258.5259688794 1704.2205805173
84.6751352612 -258.5689136494 1701.3016481579
83.7543996386 -258.5849509104 1699.7167902280
83.0794733985 -258.6799967087 1695.5166766608
83.1131368623 -258.6190969033 1697.7748176235
81.6112759511 -258.6757000705 1694.0790962222
81.1017720180 -258.7385694544 1691.2323900255
80.4622623858 -258.7904917421 1688.6438533644
79.1542278135 -258.7006898051 1690.4993724659
78.3829593380 -258.7238887018 1688.8155693970
77.5116654751 -258.8390128105 1683.6697759210
77.5550596629 -258.7762202749 1686.0075290820
102.7334242240 -259.5128141189 1712.6380344094
81.6896840692 -259.5679646908 1689.5950100625
77.9687077895 -259.7200625563 1681.3358183421
99.6460491122 -260.4162814898 1713.9469900683
97.5375718424 -260.3433730457 1713.8924276334
95.5163901412 -260.2963912797 1713.2609466754
93.0820616737 -260.1878603814 1713.8137091378
88.1480536999 -260.3357919887 1705.6324126823
87.5405416966 -260.4261907530 1702.8000599369
86.1714241289 -260.5495741178 1698.4482336652
85.3893209883 -260.5881195260 1696.7697179656
84.2993924639 -260.6109568288 1695.2112651852
83.9046332498 -260.6684422678 1693.4025511082
84.7347850923 -260.4432295518 1699.8437591279
84.1809887923 -260.4942511400 1698.0553159672
82.9422719702 -260.5078441882 1696.5966551898
